# 3D point list with one line of data per point:
#   POINT3D_ID, X, Y, Z, R, G, B, ERROR, TRACK[] as (IMAGE_ID, POINT2D_IDX)
# Number of points: 366, mean track length: 4.796193984039288
10251 -5.460219664291472 13.91486666634915 1.8394670240545623 254 246 244 1.9199818452652933 64 81 66 87 62 48 67 117
10351 0.15564262628205333 2.9172658369239683 2.9914075696512255 191 166 159 1.5411177413249904 66 419 62 338 65 211
78 -3.6569330392929369 -1.5619532233218492 5.649523305080753 87 82 79 0.85794131708865107 35 398 11 466 31 368 16 393 15 460 14 362 12 362 30 343 29 533 13 434
10252 -2.6075852428759982 1.7120752763679037 -3.1665202633406295 54 40 29 1.9502041782075548 64 65 66 93 62 122
2435 -2.6045356760489953 -3.0866823127807952 6.7466873716940503 76 65 66 0.41553383929264437 35 1128 12 1058 30 806 29 580 23 1034
5166 -0.53042247562652278 1.325910179052032 -1.7624714060783369 193 179 166 1.8010426661783736 18 35 28 284
10352 -0.59888987619882006 4.4783812819796127 -4.3039594265703709 58 30 21 0.20821932219233386 66 432 62 341 67 308
79 -3.8705459991687672 -1.4567650240519372 5.2747579349470231 75 61 61 0.57506482880966003 35 400 11 471 31 372 16 396 15 464 14 358
10253 -0.45751026544847273 -0.030872790182218772 1.812351943808123 4 4 2 0.81384427684092664 55 14 66 98
2436 -2.183885325353137 -3.1613127185172112 6.6832924437745778 113 93 68 0.82763664820124561 35 1124 12 1060
5167 -0.59515597942328202 1.029381581803007 0.5058705421392673 198 178 167 1.3325101396607413 17 727 28 286
10353 0.38463595628433694 1.430159706824649 0.066185665982542205 101 53 39 2.3976207728500678 55 372 62 342
80 -3.6616610012896804 -1.6223791875806775 5.4938940171240684 74 69 66 0.79562656087908001 35 401 11 305 16 239 15 281 14 274 12 365 30 209 29 327 13 367
10254 1.319435354216399 2.4741652735848834 1.8682699936101861 209 195 186 1.5134406514750784 56 149 66 124 62 255 67 121 67 301
2438 -2.9320074386703849 -2.0534793282488693 6.6671045182210094 71 59 58 1.3492244491584142 35 1456 12 1239 31 1293 30 1312 29 1237
5169 9.2665616786765419 -7.5616121697728325 24.459517767082573 96 38 37 0.73792986125037108 18 221 19 251 28 338 24 165 26 376 20 468 24 374
10355 -0.010965771419959868 1.8174035690050931 0.75180573938623052 125 72 54 1.3125505136216757 64 498 62 388
82 -3.8106023619661338 -1.00459539469298 5.6894534453219698 98 88 89 0.43802826089074431 35 459 11 319 31 482 16 523 14 381 12 484 30 454 13 350
10256 -0.061638833596152007 4.0144578484410882 -7.3911763693974262 96 70 58 1.1735438801454134 55 138 66 146
2439 -2.4772688469217492 -2.1189584426849648 7.248011873991107 66 56 54 0.87289420887201241 35 1441 12 1290 29 874 19 589
5170 -0.25441454789620366 1.3093564114096798 -0.10854267264710578 54 23 19 0.41413907181259324 18 764 28 342
10356 -2.7828590315827384 2.345241125726313 -4.4612251442879387 208 201 195 0.38897069202130935 66 631 62 423 65 522
83 -3.4861234358066651 0.3260515012451376 6.6096330049171241 29 69 16 2.313761899075288 35 465 11 238 31 149 16 456 14 448 30 407 29 396 29 1380 12 1333 13 670
10257 -2.3523390773434287 1.8621485341790496 -5.6035843682261781 117 120 127 1.1160843303305996 64 553 66 155 62 129 67 115 65 116
2440 -1.6863036912580263 0.60951380110128517 6.9852771065836494 193 182 164 2.2185702740529463 15 855 12 1349 14 1630 21 1142 31 1628
5172 -0.16096553956219786 1.2441873513825037 -0.032925264948742192 215 193 182 0.36839800472670586 17 696 28 352
10358 0.12308277917766119 2.7310698675617386 2.910950169074368 163 153 144 1.9524411053357127 64 893 62 460 67 392
85 -3.6944223948848554 -1.0158766899323555 5.6643239753405767 38 32 32 1.616406281647597 35 486 11 375 16 528 12 488 30 526 29 436
10259 1.1807137057518147 2.4640943478495037 1.9376585167910185 204 194 184 1.7829734343005257 64 331 66 166 62 76
2442 -1.3712681057706231 -0.21174188722825973 8.5950747239581808 169 156 139 1.2878435630716878 35 1566 12 1371 30 857 29 293 23 231
10359 1.1932475389666497 3.1263036218504312 2.1672645054397113 151 132 125 1.8947402548518824 56 532 58 711 62 463 67 540
86 -3.9248318394250172 -1.714670447706768 5.18633246917853 84 70 70 1.3547608497082213 35 496 11 1055 31 352 16 469 14 239 12 378 30 316 13 329
5174 -0.85263675354829405 3.0958359879220425 1.9129408696694672 93 78 71 1.2048268034721941 35 1698 28 356 25 268 26 176 27 413 22 283
87 -3.8623340574662688 -0.52017191087978132 5.770766410056571 41 32 33 0.36272082088646318 35 500 11 296 31 505 16 506 15 428 14 490 12 511 30 277 29 297 13 278 9 245
10261 -2.7811715854290582 3.0296028938100372 -3.6639423358448266 131 127 124 1.4803411715344286 58 594 64 849 66 190
2444 -2.2818422973198009 -0.40505538919003109 6.9435848503226962 122 125 120 1.9176366716093369 35 1632 12 1432 23 1080 21 1203 30 1444 14 1353 15 1145
5175 -0.036094901423901198 -1.3086533749044866 10.404323526903331 33 34 16 0.66258223656429915 17 543 18 326 28 373
10361 1.1747965962153493 2.1279440190812431 1.3311617835581706 194 129 119 1.9356273922914586 55 349 62 480
88 -3.5880869975033551 -0.76323047203422822 6.3434279409493701 40 39 37 0.83468399450220965 35 501 11 425 31 509 16 504 15 425 14 492 12 510 30 436 13 484
10262 1.0801832900989801 1.2230247806851371 1.1128597760545014 112 38 25 1.6480020367709245 58 429 66 222
2445 -3.7822015174929349 1.740150633671175 5.08177289832018 134 106 100 1.3600108640602357 12 1586 9 5
5176 0.63172143851852658 1.8167065007053218 0.52097519442771412 56 26 18 0.16076757049837997 19 789 28 410
10362 -2.1440482709669242 3.5473470860785876 -4.6239936375307007 195 179 179 0.19257417927040688 62 497 67 455
89 -3.9674684304848227 -0.50728323817283805 5.6618944551955002 39 29 30 1.1674774361934355 35 502 11 427 16 1116 14 494 12 512 13 387 9 731
10263 -3.9441787007057925 4.5343411370263222 -4.0411166728744927 154 94 81 1.5539442975045079 64 353 66 229
5178 0.94605418796249863 1.6482032416216312 0.61439070029034015 101 72 68 0.44039833961758912 18 691 28 427
10364 -2.6232039429849023 1.8898388191831994 -5.0762023674518035 141 146 155 0.22133860986162676 64 665 62 501 67 506
91 -3.5400970691322682 -0.84345499919473399 6.3137774091536345 96 95 93 0.30546094688101033 35 507 11 294 31 334 16 325 15 258 14 308 12 308 30 448 29 428 23 385 13 276
2448 -2.6701385392541668 -1.2375879779612537 7.7245123463167609 52 49 46 1.6075740230099349 35 1596 12 1397 14 810 16 1265 31 1464 12 1400 30 1234 30 1325 29 1420 29 1427 23 1096 23 1136 21 559 21 1034 19 512 19 604
5179 -0.44844187034055993 1.4227790772328901 0.78980125453014816 73 54 48 1.6993012954386184 18 699 28 429 20 296 26 227
10365 0.94113592931795653 2.3350798720479831 0.11565349017387974 0 0 0 0.20073053638390276 56 331 64 500
92 -4.2162608136320463 -0.48198074158733412 5.39720778383957 50 40 41 0.72504507407688101 35 508 11 286 16 508 15 424 14 499 13 268 9 229
10266 1.3122749898334976 2.7322722696361885 2.0293983875786377 196 183 177 2.0373928467992641 58 138 66 307 62 136 67 585
5180 -0.47205795323004979 1.3521778322802229 0.80443376444304893 26 7 1 0.57097761619268406 18 755 28 433 20 714 25 606 24 254 25 285
10366 -1.0504105458369597 3.4109139087140159 -5.8112334843082012 171 154 146 2.6974732297498338 66 604 62 549 67 528 67 533
93 -4.1694620271495593 -0.56844542582495161 5.31662079797165 45 35 36 0.6624828321865972 35 511 11 426 31 475 16 517 15 597 14 505 12 477 13 515 9 482
10267 1.222068464212583 3.0122912363781409 2.1275511748126101 124 115 106 0.69001052998275436 64 333 66 308
2450 -4.0725437426396116 -2.4114015956559958 4.499456901980218 38 28 28 0.56101865030874776 16 317 35 262 14 400 12 421 31 424
5181 0.27721713913059232 1.4134888431723187 0.0040729898336149921 34 3 1 0.50492804124399937 18 312 28 436 20 303
10367 -1.259760103870214 3.5457553428237305 -5.6019986485099773 187 173 159 0.93258266722541638 64 366 62 554 67 524
94 -3.8607645496806975 -0.83954667345369238 5.9350291071235235 107 106 104 1.3980473685399677 35 512 11 283 31 474 16 502 15 302 14 365 12 726 13 263
10268 -0.71776933456001524 1.0491392267449144 0.9199686853091853 156 94 81 0.24108559569831778 56 418 66 323
2451 -3.0605912568093046 -1.3427422176167174 7.1749473147592546 64 59 56 1.6591833647056098 16 513 31 722 15 251 35 756 14 502 31 725 30 451
95 -4.0651428911901517 -0.70976262092142384 5.6049785044554046 68 58 59 0.81883086129371652 35 513 11 401 16 518 15 401 14 473 12 480 13 394
10269 -1.111954305799205 3.1381001268816791 -5.4415665635488901 211 191 182 0.34046413171482864 56 322 66 342 62 235 67 204
2452 -2.5645505868944403 0.27301559641173528 7.1596033322039503 87 85 63 2.1368315436924221 16 149 15 312 35 1916 14 128 11 1168 15 1316 30 618 29 1473 30 862 23 419
10369 -0.24569540814011387 3.9870923982834223 -4.7581456342538173 59 17 22 1.6853132334376577 51 823 54 334 62 622
96 -3.9782723218012523 -0.9439596820802072 5.7136417805819972 94 84 85 0.57316004507376195 35 519 11 400 31 469 16 238 15 376 14 380 12 314 13 373
10270 -2.6093910416889226 2.3819987946269245 -3.0457652454923627 86 65 53 0.87703371870256042 64 360 66 356 62 521
2453 -3.2673661045858742 -0.31159377195671184 6.8971514053908516 78 85 69 2.1363216791320276 35 472 11 1256 31 747 14 1337 12 1038 15 1503 35 791 29 724
97 -3.8737558667191001 -0.53205990965931738 5.9975563606131352 31 27 26 1.0701477776393544 35 522 11 949 31 506 16 543 15 422 14 489 12 508 30 442 29 461 13 480 13 729
10271 -2.3271730214557884 2.0530816586294383 -5.1406468059135433 178 169 164 0.41271459360345791 64 354 66 369 65 342
2454 -3.980709870513778 -2.1229188776656449 4.4827416513314793 15 8 8 0.9177750550182362 12 533 11 395 16 1068 31 617
5186 9.1090930883388719 -7.5789694646951551 24.627831271294557 98 75 67 1.0213290404852813 17 397 18 554 19 485 28 532 21 867 20 469 25 441 24 376
10372 0.84298963924340298 2.0366140468599392 1.1944426991355492 226 199 186 0.21109993663441889 54 314 67 547
99 -3.5464551699452818 -0.519135205889388 6.7509961160175633 35 31 30 1.550640493065508 35 532 11 1073 31 213 16 336 14 320 12 340 30 472 29 453 23 264
10273 1.2920303248223173 1.4267350910166317 1.0756689007618263 113 43 33 1.3332369142113649 66 396 62 387 67 423
2456 0.6169027783245995 -1.3083069872679713 10.183293912785304 79 69 41 0.4825389986592224 35 6 30 4 29 5 23 4 21 4 19 6 17 6
5187 3.0290459248719612 -3.4549021812705001 12.384357246624152 82 75 69 0.61957778337688063 19 889 28 544 20 525
10373 1.1856629810111792 1.904271499015139 1.2410681672144779 222 191 179 0.32124091037554053 56 789 62 714 67 563
100 -3.5719333067016183 -0.37830674688680133 6.2448842002591496 24 20 19 0.92703021589526957 35 536 11 353 31 313 16 526 15 535 14 319 12 519 30 288 29 280 23 616 13 257
10274 0.26477205515147628 1.7009835211706521 1.2970780031942377 166 117 105 1.0320873285375529 64 875 66 399 67 234 62 207
2457 1.1142904637673361 -1.5456103758139002 9.8931153694278873 74 45 39 0.38371891380312206 35 23 30 14 29 19 23 22 21 25 19 23 17 21 18 25 28 31 20 15
5188 4.9228953330941607 -5.3257874728511743 16.847161041643513 122 107 104 0.36691877968357289 17 417 28 562 20 496 25 463 24 337
10374 -0.42592804755026625 1.883404214553537 1.4497817007591967 150 86 63 0.70135007738156974 66 840 62 721
101 -3.7846014186127999 -0.52618759130388926 6.0138451190800399 112 108 107 0.40901574683535136 35 539 11 420 31 769 16 538 15 418 14 508 12 767 30 281 29 673 13 247
10275 -0.11014046611744245 2.835486157318718 0.63387564457211631 178 112 93 2.4928985219842303 64 983 66 400
2458 -3.1965103019165011 0.13271571828773099 7.346724280714013 132 132 109 1.8436250644280694 11 862 35 37 30 25 31 886 29 17 23 183 21 163
2459 -1.8712119754702181 -0.62547799525963443 8.0063460032897531 205 192 167 2.1096128338426188 31 34 30 29 29 36 23 21 21 12
2460 -1.4369326014360566 -0.083224446350201625 7.248233527511375 108 116 93 0.75295781973623388 35 38 30 31 31 37
5191 5.2769002214690959 -5.085791586313527 16.77548672017377 55 47 44 0.35777615539370772 21 866 28 570 20 466 25 257 24 219
10377 -0.62723246953058365 1.3694086457463008 1.1278097041976489 167 99 82 0.48356590086203682 66 479 62 742 67 593
104 -3.6568176562800598 -1.9674576485609911 5.6678043460711081 33 27 27 0.74271827097438581 35 556 11 443 31 533 16 632 15 435 14 531 12 588 30 317 29 1086
10278 -2.7092907802556754 1.7399383108452662 -3.4169439579151164 42 26 11 0.27747494964215058 64 545 66 468 62 485
2461 -1.6310681657140804 2.1695305485490568 11.966126039733375 135 76 58 3.4104343449224701 12 1 30 35
2462 -2.7910283465149859 0.087600202861674345 7.2991275007075442 58 67 29 1.399856412543202 31 1376 30 57 12 793 23 232
2463 -0.072472391424229121 -1.04253188433447 10.42452001341068 177 164 145 1.8065768352989766 31 65 35 81 30 58 29 90 23 108 35 1486 21 83 19 85 17 82 18 96 28 73
10380 0.15069850047298275 1.6897503236585301 -0.020528545649637978 160 105 98 0.26456470332133641 64 4 67 22
107 -3.6435119379084817 -1.8509583295979741 5.5372180170061709 39 33 33 0.4820953656154332 35 564 11 440 31 578 16 630 15 559 14 418 12 585 30 490 29 489 13 421
2464 1.4647085503331809 -1.405521713836074 9.8708499925459154 194 181 164 1.7393470761909295 35 69 30 59 29 67 23 49 21 46 19 73 17 70
2465 -0.12483563006739401 -2.2097445425323503 10.686987066785909 187 179 156 2.0768984020937404 35 98 30 66 31 101 29 62 23 95
2467 -3.0191995418545066 -3.6048106677202449 5.8233219636243456 63 52 55 0.24516877403972612 16 103 31 71 35 63 30 71
2470 0.51417965134413968 -1.8072708783160809 9.4902209669586739 122 0 15 0.29515606881830214 31 82 35 97 30 96 29 104 23 87 21 84
2471 0.37868006906023277 -2.2220209053852864 10.116150391279252 198 186 160 0.39103879568138894 35 99 30 97 29 96 23 102 21 88 19 89 17 62 18 64 28 68
2474 -3.9366591320773416 -1.7116766955516463 5.6167003738106986 62 52 51 0.19298086045210569 35 182 30 139 29 235
2476 -3.5413047950102698 -1.111842990869033 6.0855382954676944 103 99 98 1.1649970058495951 31 1242 30 150 29 213 23 127
2478 -3.7412880482373687 -2.2786789851072684 4.694597095482365 39 28 32 1.0270451390218247 31 1032 35 1923 30 160
2479 -3.3371953227384559 -3.0938813991366541 5.4131305872959405 53 42 46 0.57629842046218416 16 192 30 163 29 152
2481 1.1885234749734817 -0.94641599639271856 10.105382119219025 199 191 174 1.4227275586591679 35 134 30 170 29 193 23 180 21 160 19 121 19 407 17 109 18 132
2482 0.4315435574209372 2.9293883542081707 0.9255758035631807 149 141 130 0.48560432031005762 15 126 30 172
2618 1.5122702473385059 -1.7101727957574615 10.270428429992691 87 87 62 0.61039669458281753 35 862 30 1043 29 783 23 704 21 645 19 507 17 567
262 -3.3781588824269781 -2.0045410545845335 6.3084934075659724 51 39 39 0.3890546626926315 11 92 35 95 31 113 16 108 15 113 14 98 12 105 30 108
2619 -3.303247442102196 -2.9440700576554475 5.1511524680681831 21 10 14 0.33476104318567185 31 637 30 1057 29 1157
2620 0.31134056699091145 -0.61039806844158284 10.168496571137544 76 58 36 0.6880620122851272 31 900 35 1526 30 1065 29 269 23 756 19 682
265 -3.6014581636307783 -1.9404660441994854 5.7625924610798833 90 84 84 0.58276250699272591 11 95 35 113 31 118 16 123 15 131 14 115 12 176 30 111 29 101
10538 0.18860725840944065 1.788084130843334 2.4272115796767686 144 85 74 0.83304611480704194 65 29 70 29 69 23
5451 7.1364465539148956 0.62804025125109708 7.1052065107597722 58 61 64 0.49083717200889099 20 237 25 227 24 153 26 167 22 163 27 186 33 158 32 197 34 209 38 219 36 224 40 172 39 147
10637 0.27742261448287858 0.95692724939227658 0.65707053848274999 249 190 182 1.1127219638702672 68 336 70 456
364 -4.2378302216662123 -1.1504167976951336 4.7423432294884025 78 66 68 0.5716014890900678 11 457 31 370 16 395 15 462 14 360 12 363 13 370 9 303 10 266
2622 -3.4784178648827533 -2.1657311750843862 5.519768424880894 80 74 74 0.15464518325678897 16 1009 31 1105 30 1097 29 1607
2627 -2.7499610273107491 -3.1529534447147665 6.6742203606512245 72 62 61 1.0485162423271335 35 1215 30 1116 23 882 21 812
2632 -2.9474297221361789 -2.3699846014449237 6.5034938724618785 56 50 50 0.75202205569915015 12 970 31 580 35 555 30 1147 29 492 23 796 21 714
5366 18.646910966850051 -10.929058545751435 33.780466742328798 37 32 29 0.48032299738956735 17 402 18 300 20 392 28 337 25 341 24 405
10552 -20.649175842936458 5.1717745240223092 -10.680963319785722 1 1 0 0.30016244630551087 68 211 71 202 70 208 69 207
279 -3.5151759777897063 0.14365457835869133 6.9982919663497221 58 101 27 1.2787916261956596 11 168 31 171 16 1182 15 150 12 214 30 988
2636 -3.4002175284789913 -2.8283834025679466 4.9297478108379202 50 39 43 0.60958089644027602 31 1182 35 1326 30 1161
10558 -8.6646690237965149 2.0678396269237784 1.816302354163984 20 16 17 1.6134315541616604 5 478 71 235
285 -3.336909029120533 -0.072687104433669089 7.2593311033023706 39 43 16 1.810965741296612 11 742 35 218 31 190 16 1355 12 213 30 117
10459 -0.05667138173758389 1.1493657693160473 2.3842295042920147 227 193 186 2.1447565306745098 66 483 65 232 68 421
2642 -2.8994852984358266 -3.2543182640934107 6.2525354692465616 61 51 50 1.2026012903511671 14 1180 30 1203 29 1144 23 891
5380 4.5755955633684655 -5.0356366025170525 16.373936527223069 20 6 5 0.46738975283961076 17 400 25 471 24 339
293 -4.2812293601816434 -0.24477556540490991 5.2070732754741886 103 93 94 0.29905978721229182 35 160 31 210 16 219 11 256 15 238 14 197 12 208 13 171 9 162 10 145
10467 -2.6598049114920825 2.1298312508305979 -3.5047312977074929 129 109 84 1.7922898037361101 67 535 65 317 68 381 70 419
2650 -3.5121293764525587 -0.7585819760600967 6.4719844173252588 76 72 69 0.63016714511121363 35 1605 30 1232 29 1387 23 1535
5385 15.60418394263213 -5.5668713545733528 21.158473406410298 105 96 96 0.62574664749774234 18 459 25 537 24 410 26 398 22 323 27 304
298 -4.0382115672172887 -1.1208039311176892 4.9017820200592235 72 63 54 1.8666587054842803 11 462 31 226 16 240 15 561 12 235 13 345 9 307 14 238
2655 -3.1776095312381867 -0.36037338138816605 6.4490273730684429 110 110 102 1.6130698563064325 31 1298 35 1658 30 1253
2678 0.86141393722629511 -1.4775497544334681 9.7755146615758832 34 24 15 0.5902720353839187 29 740 30 956 23 647 21 902 19 737 17 559 18 385 28 652 20 556
5417 7.2024639065633425 0.44833983157048768 7.535688952131129 125 124 122 1.09708092422208 25 7 24 9 26 14 22 6 27 4 33 5 32 6 34 6 38 7
10603 -20.47607171510278 7.3860585036306858 -9.5702777105359438 11 1 0 0.28494124431102025 71 75 70 105 69 105
330 -4.4828219939039267 1.5349975843308712 5.084171068083605 84 64 66 1.8487658963265661 11 1231 31 292 14 869 12 1347
2687 0.92855262006827066 -1.5492892657114525 9.8413050422228334 41 0 0 1.6031032023314349 35 1623 30 1473 29 1020 23 1286 23 1296 21 1208 19 330 18 360 18 582 28 709 28 715 20 560
2690 0.63123170375395166 -1.4343964333555701 9.455326384523902 57 76 53 1.8539256943941411 35 473 30 1478 29 716 29 1454 23 633 23 1284 21 488 21 905 19 738 17 403 17 557 18 361 28 713 20 558
5422 -0.64188810887966741 1.5054237436641127 1.4096216244008288 215 204 195 1.3147753518030076 28 29 24 19
10608 -20.258044777910815 4.865489936645579 -10.52153000886414 26 33 15 0.4046737442705769 68 133 71 99 70 137 69 140
335 -3.3321477466692837 -0.51155004006477278 6.8518914248099589 39 44 28 0.91655807313550541 11 529 35 529 31 314 16 338 12 319 30 468 29 437 23 265
2692 -2.9197952422409994 -0.48117875874267074 7.3550874301273828 71 74 65 1.1263215367515496 16 868 35 822 30 1482 31 1470 29 735
5425 1.2053590752393706 3.9723975398828602 3.0097868579591442 131 121 112 1.2309472960198964 25 89 24 32 26 17
10611 0.30393156410478933 1.905073144770109 2.490393551785175 0 0 0 2.5424198719545705 4 243 71 122
338 -4.006322258266346 -0.14449629077818615 6.2032727237562773 27 24 17 1.4995056861736453 11 877 31 317 30 1465 29 1314 13 849 9 678
2695 -2.6617641912874754 0.18688846308564525 6.8433285181629699 85 85 52 1.6928772164165671 35 964 30 1501 29 841 21 1162 23 1215
10612 -20.458833190694314 5.7902847155503592 -11.737430125229706 22 21 12 0.38254771796118331 65 150 68 178 70 200
339 -3.6983866321775691 -0.24825074958537241 6.6550173740045722 76 71 65 0.80454053584221386 35 311 31 318 16 353 11 523 15 341 14 511 12 323
2696 -3.0906808883768218 0.4190816693759688 6.219282075926535 123 136 101 1.0349264944904384 35 930 30 1508 29 827
2707 0.2943578571246902 -1.4597352805328458 9.4243116080280132 132 129 104 0.35523336864323041 31 1475 30 1586 29 1445 23 1530 19 697 17 564 18 386 28 403
5438 -0.63002999332422238 1.889538182560754 0.50486884163445345 28 1 0 2.7091238626616039 25 164 24 86
10624 -22.469764310972085 5.8622408863384337 -15.858040327869313 36 32 21 1.026118418229665 65 133 68 291 70 283 69 261
351 -3.2333815478810819 -1.8558955752980359 6.2439536887376716 97 86 84 0.62699389832836461 11 310 35 399 31 340 14 265 12 233 30 344 29 203 23 197
10525 -1.7194182791669574 3.8342664963929924 -3.6552960048284855 176 165 167 3.0170052359212871 65 409 68 509
2708 0.11546980676762146 -1.448273745151732 9.3881957527382678 140 144 116 0.36956480585810741 31 1471 35 1673 30 1592 29 1022 23 700 21 1029 19 794 17 562 18 583 28 710
5439 13.21810670802677 -2.5215210138818249 17.398985067156882 219 208 188 1.0232589340036637 20 142 25 85 28 158 24 90 26 62 22 62 27 53 33 48
10625 -0.0050836798225043249 1.7341272581152145 1.4559725742258056 146 90 81 1.263438067197016 68 414 70 291 69 279
352 -3.5475717307780337 -1.4062700876355423 5.8064945750933923 109 104 101 1.1325765507332988 11 652 35 234 31 345 16 250 15 292 14 242 12 495 30 202 29 302
2709 -0.026143322206172888 -1.2737465554179166 9.1543603436758616 162 161 140 0.31924649297721513 31 803 35 828 30 1598 29 777 23 652 21 650 19 459 17 552 18 381 28 397
5441 3.9538198136082667 -3.998846675034498 14.163163498458152 65 52 52 0.29150905370260505 20 189 25 147 24 106
10528 -0.44678785440612517 1.3844407643056869 1.5660817635024089 226 186 169 0.073621497479284065 65 424 68 545
354 -4.1239375831763434 -1.3437552372097268 4.5313170940101477 77 63 66 1.2914166585519358 11 1049 31 350 15 473 12 227 13 971 9 702
10627 -0.015338998121583817 1.6806308533852496 0.60540887380363628 132 74 64 0.26972460522488129 65 401 69 297
2721 -2.9203861670746183 -1.096933980122021 7.1455174261462142 78 73 70 2.4428636152864676 16 542 35 1076 15 730 31 924 14 808 12 1205 31 1335 30 1323 16 955 31 1331 35 1598 14 995 12 1201 29 911 23 862 23 1097 23 1099
5452 7.5400937826907217 0.45129615662149336 7.3905473990203463 72 62 63 1.2239102367552719 20 327 25 225 24 154 26 234 22 211 27 185 33 213 32 300 33 285 34 224 34 634 38 585 36 754 40 422 40 628
10638 -0.63990996602731531 1.2200863046971628 0.75466540675060068 253 196 185 0.32712632412817161 71 462 70 466
365 -3.9952521096561795 -1.5480096658669145 5.3603236448712384 33 25 23 0.92272568274445588 11 804 35 224 31 373 16 1437 15 782 14 273 15 499 13 761
2722 -3.9101711735238229 -0.26242902730558293 5.3113263774266786 64 54 55 1.784117331075364 31 1495 35 1614 12 1401 30 915 11 347 35 1055 31 1017 15 268 15 979 16 1261 14 1453 13 281
5453 7.2412542290921058 0.31878339866219213 7.2557634802700113 9 7 1 0.42077815574772215 20 241 25 224 24 155 26 183 22 165 27 165 33 211 32 171 34 211 38 211 36 227 40 242
10540 -21.140920535511682 6.9569630233137527 -11.152727622353705 52 49 44 0.64817448265611288 68 99 71 72 70 107 69 104
366 -3.7237494776338957 -1.7416344396493522 5.6180988131804055 35 30 27 0.63445351519439519 11 475 31 376 16 356 14 356 12 368 30 346 29 331 13 426
10639 -22.734783177191574 7.4639768968864821 -10.688404563586879 9 2 2 0.21764196130350233 71 356 70 477 72 250
5552 11.260804030512624 -2.1483044753285894 14.368674103770726 167 154 135 0.47868803893033174 20 162 24 91 25 129 26 68 28 161 22 73 27 82 33 72 32 62
10738 -5.5659690591051509 14.170683960858625 1.7358424748667067 247 242 246 1.2301527690654768 69 63 72 62
465 -3.9839355123579709 -1.3830609438349135 5.1202156494273376 30 19 20 0.76742805503231626 11 656 35 606 31 564 16 796 15 645 12 1010 30 998 13 590
2723 -3.0474524720878007 -2.8740652061014655 6.0834374410940439 51 48 49 2.1326177807666591 31 514 14 431 35 667 12 358 30 380 16 769 30 762 29 582 29 986 14 1165
5496 7.1361797622862913 -1.0714186494841673 7.8422363938901887 227 214 195 0.071761809916713298 20 632 34 253
409 -3.8509871040161667 1.2477714280963943 6.6740836636346934 71 22 5 1.0932283694932827 11 244 31 467 12 67
10682 -20.656887606485324 5.20024642280113 -12.819031277087767 35 36 16 0.43412156983527633 65 202 68 222 69 210
5595 7.2852530949358716 0.15411224415635938 7.5424015960164841 122 115 98 0.52087033970233165 20 336 25 598 26 332 22 202 26 166 27 180 33 283 32 239 34 212 38 276 36 253
10781 0.46982973507689541 1.9614308566939647 0.45829122063430383 218 210 199 0.97318838120657136 72 49 73 33
508 -3.7710051786508743 1.3030617902077291 4.586335029701563 61 57 52 2.0709322302895461 31 660 14 1652 10 461
5499 10.795632082960697 -8.3543853018997591 27.46833024879011 142 115 106 1.1436710323543922 17 496 28 534 24 382 19 599 28 529 18 567
412 -4.2667149841176881 -0.42244055240768269 5.1952859132258258 96 86 87 0.25287639824537683 11 433 35 509 31 471 16 501 15 381 14 342 12 518 13 264 9 282 10 268
2770 -2.6841477124526816 -3.1042536566914394 6.7708325316592877 64 52 52 0.30865121865369766 30 243 29 237 21 197
5503 15.602494148220524 -6.0144080318151474 21.828080933206834 53 41 30 0.50095917018744962 20 541 25 533 28 612 24 424 26 366 22 324 27 269 33 318
416 -4.2028691390064035 -0.65048964442790924 5.3115529693122694 70 60 61 0.96011147548894349 11 408 31 478 16 919 15 396 14 378 13 391 9 325
10689 1.4215741844060372 1.9046596498577515 1.3287915743322065 200 182 169 0.21741695687352797 71 604 69 306
5512 6.4066253787309577 -3.9955432200919616 17.967498601478955 184 170 157 0.12377738340486251 18 670 28 696 24 486 26 395
425 -3.5914163539199468 -0.31440135354679993 6.4622789833646168 26 25 20 0.47788450316915004 35 527 31 494 16 521 11 355 15 333 14 323 12 453 30 291 29 282 13 244
10698 -7.4329920040979562 0.23527400204028337 -1.0405636522179611 89 63 53 0.3516838322183708 71 421 69 390
5514 7.3431823054027765 -0.71577874824261112 8.2193377780194226 174 161 142 1.015315258961391 20 555 24 503 34 316
10700 -0.14794307539899823 1.181553777018586 1.8719459560093035 225 189 179 0.43715229144934725 69 397 72 651
427 -4.10388293540381 -0.3791162154656636 5.4923288147953189 48 38 39 0.38161102892276327 11 416 35 523 31 508 16 505 15 252 14 491 13 277 9 392
5526 -0.11355760293257962 1.8056431600521012 0.72750991595718184 47 16 11 0.01194188246477022 25 424 24 566
439 -4.0909339137882936 -1.692932059272384 4.8273255179991645 41 15 21 0.45177007865473201 11 622 31 526 16 971 14 555 12 537
10712 0.020869512361709686 1.7166080061068163 0.49870434599657137 116 51 29 0.49279929777624365 71 543 69 489
5529 -0.27741839045769612 1.0637240061617694 1.3138334186919431 60 26 25 0.49683419159003062 25 590 24 587
442 -4.0975792622594227 -1.5741346224590687 4.7230166206081128 29 17 19 0.42970746143674199 11 620 35 561 31 529 16 633 15 661 14 553 12 536 13 506 9 349
10715 -1.8941102517523112 1.4507997334695593 1.6134860788214003 130 75 68 2.0000424843472064 70 328 69 543
5628 -0.53191220630172065 1.1775899625115906 1.1122883732176114 38 8 6 1.3495633916454959 26 4 22 2
10814 -0.033708139606383671 1.1146177018436139 0.41558796397092868 242 185 178 3.4553338780679193 72 529 73 473
541 -3.3004088715503754 -1.5612282092594572 6.2922605335494577 40 32 27 1.4426644364554371 11 376 35 814 31 759 14 743 15 811 30 975 29 1271 23 1129
2799 -2.8767179735054755 -0.80514704776858204 7.2298718476411956 57 53 50 1.1848342224000714 12 1658 29 665 23 1336
5532 -0.39548997659060481 1.5303614439917768 0.85710500131737055 58 41 38 1.772193720464684 21 1078 17 661 20 298 24 257 18 343 28 425
10718 0.16285557057022554 1.6584951124295193 2.4838989257327153 232 192 183 2.4263862340142732 71 590 69 597 72 590
445 -3.8056791108316936 -2.0625884139349302 5.3872794827430974 16 12 11 1.7005782214858742 11 450 35 582 31 534 16 287 15 439 14 620 12 384 30 311 29 310
2802 1.3610641835304556 -1.3122564532349914 10.235119378699395 70 65 46 0.40896194280758291 30 717 29 701 23 669 21 887 19 440 18 621 28 370 20 545 25 623
2822 1.1700040320757106 -0.86277333922486643 10.862579083082954 157 144 128 0.51344777263970154 35 693 29 843 23 636 21 1211 18 752 28 387 20 384 25 293
10755 1.1190540646901823 2.1720858988818619 1.8352106393740633 202 171 159 2.4071263947539538 71 558 72 349 73 617
482 -3.3723422442070952 -0.57625215823596287 6.5522781044644276 37 31 31 0.98865459243867537 11 564 31 607 16 972 15 968 14 825 30 912 29 762 23 1305
10656 1.2116508312270722 2.6791729872382377 2.0466222418517059 81 75 71 1.9048937691170775 4 117 70 68 13 743 3 219 7 81
2839 -2.4161762549554475 1.3828411652171573 4.5995908253603055 181 170 164 0.16501695702500868 16 837 29 1037
5571 0.31155431677020518 1.4445424482120419 0.099208103742602707 27 2 0 1.1841456968840336 24 169 26 173
10658 -0.079520459621729489 1.4263711004639945 2.3090261927129525 103 35 22 1.0541015761639039 71 16 70 16 69 14 72 12
484 -3.3646327430008687 -1.5608912050879975 6.2115657891897689 80 73 67 0.4724905178518285 11 406 35 1436 31 611 16 976 15 565 12 559 30 1281 29 522 23 1120
10757 -0.59989276841333694 1.331322067676165 1.1840306418976765 189 142 129 0.80131015460616462 69 535 72 360 73 514
2841 -3.2227145911676911 1.1439125450007397 6.3329355104054708 178 168 170 1.663099697633651 30 251 29 1048 23 1237
2865 -0.27102872367187542 -1.14424971957898 10.848887040822948 133 122 104 1.8996313619867966 30 953 29 1294 23 674 21 625 19 763 17 586 28 674
7952 1.2350764011434703 1.3529547643405713 0.98644934389924765 144 103 75 1.0834531736402921 48 1468 46 1473 53 738
5604 15.94182567044901 -6.2268976310853352 21.362704748774163 130 122 111 1.5689115451380911 20 524 26 375 22 320
10790 -1.7396725628445466 2.3974707957018957 2.1216392169384313 143 82 64 0.29107546446136379 71 623 73 220
517 -4.2246061135687478 -0.55071096690915922 5.2422608438503646 80 70 71 1.0538016437931463 11 282 35 1096 31 711 16 519 15 400 14 454 12 1175 13 265 9 234 10 147
10691 -8.6106615570197302 2.8607285056560823 2.1922055897803006 77 71 78 1.2211086744477722 71 299 69 313 72 481
2874 -1.7685920776754422 -0.34703003888266781 9.0007820229429978 85 80 61 1.7134545885555468 30 872 23 1203 29 1366
7961 2.6336508029673871 2.727273428725228 2.9771457829179062 101 51 45 0.72163159613844663 48 1648 46 1514
10792 1.2416326824463806 2.7942491182069356 2.0685175287851507 176 163 155 1.3285865330977256 69 565 73 264
519 -3.7075847943542479 -0.71708131603689196 6.1791471498821036 95 91 90 0.41619621994370909 11 589 31 713 16 1352 15 744 14 990 12 716 30 704 29 677 13 453
10693 -13.734196413103488 4.9058535671570267 -5.4720271263523808 6 6 14 0.42977524449615329 71 361 69 347 72 515
2876 -2.6186914109202473 0.29209794835926989 6.1972198842347996 158 147 127 0.82637073163249952 11 935 29 1381 23 1181 21 580
7963 -0.6848858510760204 1.318854654540591 1.1704202358132683 0 0 0 2.0007176473186452 39 301 48 875 36 290 43 688 37 801
10802 -10.792265475258002 1.4685500315795375 2.4552467255078185 80 66 63 2.0694852940549522 72 221 73 498
529 -3.1205668658031627 -1.5609051373148819 6.3223808600161941 43 33 31 0.92302057981535512 11 181 31 736 15 296
10703 1.2337242913276378 2.6202373405821304 1.9691027230935509 129 120 111 0.10278190226922933 70 302 71 550 69 407
2886 1.6165112514739868 -1.8512860291990978 10.058099783858005 203 194 165 0.84953529230116198 30 1597 29 1474 23 1241 21 1048 20 355 28 685
7973 4.7074963345667564 2.8966358234835772 -0.20245711611293632 175 143 120 0.66846139434793084 48 961 46 1616 53 1366 50 954
5618 -0.50140600238669508 1.2963432320840178 0.74634065187563159 31 10 6 0.4084434403557366 24 558 25 609 26 462
10804 -11.365765168311192 2.5021059711810314 3.3278447677506797 53 49 46 0.1427794693701433 72 297 73 546
531 -3.3725910275587969 -1.5034529645699051 6.2384108204593618 44 38 35 0.38301453697026089 11 587 35 1019 31 739 16 597 15 640 14 956 12 736 30 542
10705 0.85773217929850609 2.5436096687433971 1.7033061900183848 171 149 140 2.330438325213831 70 300 69 409
2888 -3.4621516055641051 0.70675708372458657 6.6746250692030253 77 37 21 2.1055760781723833 30 885 35 685 29 1488 23 564
7975 4.3799131776950926 2.7041729203674665 -0.77932151736872635 137 105 84 0.22664175341072113 48 1400 46 1624
5626 -0.16626113075263482 2.1502028179376587 1.2522861440677386 77 48 42 1.4731735786911107 20 172 25 214 28 295 24 135 19 447
10812 1.1964055354523333 1.9127832085580183 1.6118681732781743 160 100 92 2.1904360430677148 71 17 73 24
539 -3.5654076168244511 -0.37898320044716599 6.5611228568801989 68 65 58 0.55980676734833468 35 896 31 755 16 1295 15 1187 14 1501 12 757 30 893 29 778 23 663
10713 0.049429167899085948 1.6350240252812496 0.57239735046664197 97 45 21 0.25111662926936684 71 501 69 493
2896 -2.5420693794427169 1.053389240399383 4.5911010519910613 188 181 177 0.64275161388132851 11 1219 23 1232 13 794 9 742 10 605
7983 4.6613135643337236 1.7947958635301204 -0.56526169282194294 180 152 130 0.48421433544956444 43 898 46 1710 47 1294 53 1416 50 1436
2898 -4.0631770672802707 1.99990053969645 7.3774853229255513 94 89 86 1.5030333198405712 31 203 35 1787 29 1629
7985 23.150388433308365 2.8124129995896463 -1.9817272761176294 105 102 85 0.57242896681987221 41 709 48 672 46 1736 44 1080
6201 1.3553974316729387 3.1997358742250812 2.1582296007909956 142 132 124 1.3463298727534465 27 94 33 117 32 152 34 163 38 116 38 321 36 262
1114 -3.2714730071432996 -0.22145259022964339 6.702231795515095 100 119 91 1.6405738412565485 11 1255 16 1280 15 521 31 133 29 998 35 1634
3471 -2.9848850014746224 -3.0551016619409994 6.4975763422278048 62 53 51 2.0777043043563679 29 1069 23 1576 21 293 30 378 23 140 21 124
8558 4.7676908896065004 1.9808018297078942 -0.30609226908336712 156 125 97 0.58285762921995876 46 1191 50 1458 60 1182 63 1472
6203 0.39075606908729238 2.6461653419290743 0.75584814147509971 86 62 55 1.5886572234683094 24 523 26 287 22 397 27 403 33 508 32 516 34 566 38 770 27 392 32 514 37 561 41 980 42 660 53 1722
1116 -3.0163289224345031 -0.52125322858476697 6.8152288585371217 91 95 81 1.5604914111888997 11 761 31 757 16 1290 15 1133 14 833 12 1396
3473 3.3080372383305834 -3.7612036680763676 13.548793850623092 14 7 9 0.8042505223559806 23 818 21 817 29 1218 19 479 17 534 18 268 28 614 20 433
8560 3.9526595572646137 2.4279714694278463 -1.6846353736296875 178 148 122 1.4002382497466519 47 490 53 1554 50 1485
6206 0.3058492345203544 1.4449757979600519 0.068505150170017209 35 7 7 1.8705523482310926 22 100 27 145 33 150 38 399 32 279 34 351 36 445
1119 -4.0873726163700876 -0.47836615852279291 5.7210367685979691 72 66 66 0.95534893300250434 11 1156 16 1340 15 740 14 1438 13 543 13 916 9 423
6207 0.24078167086614694 1.6195836340880074 0.37751668889906692 94 69 64 1.6419859303422275 38 57 36 104 40 146 39 150 44 283
1120 -3.945204048518737 -1.6078125040624534 5.0743750919522119 78 64 64 0.95591495737989052 11 763 16 1342 15 790 14 1109 35 1152 30 800 13 758
1124 -2.8831795170306176 -0.08816669295845006 6.6655175853265511 101 129 81 2.0264067632466092 11 233 31 1751 35 1488 16 1353 15 547 15 1375 16 745 14 1314
3481 0.12510274876910757 1.4146658786456414 0.06227975606804461 145 68 42 1.5612024555719799 10 14 3 12 9 15
8568 3.8027224880723804 2.9940382412845779 -1.4186810219777164 172 142 116 0.73555028743881412 47 1568 50 1681 59 1646
6214 11.76494802416159 1.7694996591641192 4.361614301286056 100 95 96 1.3834887907418303 34 36 38 31 36 36 40 33 39 27 44 41 37 25 41 33 43 44 42 35 45 37 46 34
1127 -2.4190499716765492 0.59197867698328643 6.2753683466510957 134 96 85 0.53905413404908475 16 1397 15 1230 14 1649 29 1356 11 1224
3484 1.2350634883405724 1.9091753815125569 0.35347621850954875 169 163 151 0.16012264926723596 11 27 9 23
8571 -0.29421424305917471 1.9128209711228426 1.6192247415821757 101 39 28 0.023135758844295549 53 943 50 1709
6224 7.2783074555930387 0.38750925348421061 7.6157932105981105 140 141 145 0.33360684367582188 32 83 34 89 36 96
1137 -4.2115264187858461 -1.5142311762523033 5.1095463203987457 53 43 42 0.66961359600718928 11 807 16 1453 14 1119 12 1066
3494 -1.3357637533195634 1.1481762327067579 2.6325095770465734 158 88 71 1.3127858758972519 13 78 10 88
8581 0.8115516717293455 1.4331288667362387 0.71066107291768632 112 53 36 0.89230376475502604 43 729 50 1827
6227 12.447859480163364 1.3587371725005779 3.4441462975893846 23 12 11 0.56400798909617533 34 103 36 111 37 98 42 156 39 185 45 159 48 157 46 173 47 186
1140 -3.1779204875314391 -0.36829245872592281 6.5573554549857285 69 69 63 2.1407371836063001 35 325 31 493 16 342 11 272 15 334 14 324 12 321 30 293 23 1264
3497 -3.0380821319341997 0.75618053033254529 2.4798714875329715 63 58 54 2.2990367534796103 13 141 9 83
8584 -0.49062037246718632 1.0952351932303916 0.33912202112371864 142 73 58 0.80690325448033595 53 1880 50 1842 59 1805 60 765
6228 11.898644417084592 0.74828656038751784 4.3998662447630226 99 78 64 1.3517538180734843 34 105 38 102 36 114 40 122 39 102 37 149 42 165 43 147 38 171 45 144 48 155
1141 -3.3665473028219126 -1.8497056493044026 5.9627879158800141 47 40 38 1.1923160075819996 35 1749 11 658 31 1312 16 398 35 225 31 230 14 1269 30 1125 12 16 29 329 23 310 23 978
3498 -4.3556672656598892 0.1525836841173937 5.3239295624140741 24 14 16 0.054124265108446118 11 100 14 135 9 84 10 85
8585 6.145394922625905 3.3761165829589626 1.7363457505475561 161 133 112 0.42642934539363625 53 1681 50 1847 59 928
6231 11.79549342592129 0.71572661965144835 3.6504922078267077 182 135 145 0.58924672921265075 32 187 34 179 38 172 36 119 38 223 40 116 39 142 44 167 37 155 41 155 43 201 42 207 45 176 48 172 46 182
1144 -3.113237373931133 -0.91937433984167483 6.978884477784904 56 46 45 2.0466635644529951 35 807 11 940 31 1684 16 1264 35 1608 31 1458 15 975 30 1233 29 1667 23 1437 21 528 29 958
3501 -21.033992761788351 -2.474671588995693 8.8896436886684125 28 26 31 0.49603570248041351 11 114 13 104 9 103 10 107 3 105
8588 1.5469016679519225 1.9833637633112506 0.183623415030784 170 135 113 1.3068096681330266 46 1452 50 1859
6232 -0.7095878510398137 2.8915538827046454 1.7403406827449721 166 158 148 1.6620740493658261 38 89 36 133 39 519 43 153
1145 -3.3816571281059673 -0.94546105792339308 6.3869517083572767 26 22 22 1.3437321241310392 11 610 31 940 35 1377 11 1164 31 1607 16 963 15 589 14 978 30 1320 29 1719 23 860
3502 1.2099313482319065 3.0382827136020576 2.0205570231598848 162 149 140 1.8348096765583055 13 95 9 106 10 76 5 65 4 69 2 77 1 77 8 76
8589 4.4199142325447953 2.9729600476176996 1.0596692801997871 159 134 104 1.6807130933359369 44 952 50 1863
6234 6.431221034311096 1.8223242559825892 1.4022158315579585 17 7 7 1.8126814468272081 34 129 36 144 38 121 40 151
1147 -4.1210252865359553 -1.3924762455090343 5.1579193158357244 81 71 71 2.0700103245354629 31 1313 16 1149 11 472 35 607 31 562 15 465 14 357 13 432 35 1414
3504 -18.92946491565867 -2.034858018367983 8.4384243669614456 10 5 11 0.46584379105328377 11 175 9 116 10 122
8591 -0.89361484627286569 0.83945314261002069 0.78487321126888177 120 67 56 2.0096399404260463 53 1177 50 1875
6235 0.30596370793884392 1.4431942949479926 -0.011103178228576104 38 5 0 1.4893487063583208 38 130 36 150 32 94 39 288 40 248
1148 -4.1805654633894438 -0.4375787694690258 5.2762532374588309 46 36 37 1.3194273447172524 35 761 11 431 16 925 35 1073 31 944 12 959 13 399 9 433
3505 -13.41857269584473 0.20614217157742865 7.0266558978455311 10 5 11 0.61126473244964197 11 136 13 127 9 118 10 98 3 84 5 101
8592 16.342283570973098 4.2304490873615608 -4.3079609586426892 44 23 34 1.0192341524288195 47 1137 50 1881 59 777
1149 -3.3338792820802112 -0.98202898220501011 6.3285789837613375 96 92 89 1.5352450045792052 11 1120 31 1498 16 913 35 1100 31 1525 15 591 14 1243 12 1220 29 1195 29 1345 23 899
3506 -14.063857403197806 0.76017154567016965 7.2614609020187135 13 8 14 0.70809697906939795 11 85 9 120 10 154
8593 4.8343553224441642 1.6829606586104771 -0.39466303232667238 147 117 92 0.67040281937665647 46 1209 50 1898 59 1070 63 761
6237 0.8582059206844872 1.5384413809267286 1.0229849836865819 127 86 82 0.60965837446145787 33 149 36 156
1150 -3.6040426274014967 -2.4299554554808931 5.380077979087452 22 18 19 1.7204741458995914 11 630 31 1125 16 768 35 1214 31 1735 15 1067 30 1113 29 1710
6240 -0.88849665380711451 3.2240851538466782 1.9965785547954333 165 152 144 1.1928434948631659 33 111 36 168
1153 1.2805884923331261 1.8140658303846735 1.3055503819764167 88 54 52 1.7864334078534312 11 5 15 5 13 5 9 9
3510 -10.767573746058128 1.2560782426890147 5.1776771587129486 24 20 19 0.5077668641073162 11 259 13 169 9 158 10 170 5 271
8597 -0.23936051903274097 3.6807689331280109 1.1271663994101306 92 84 79 1.7351577746357165 47 15 53 12 45 7 48 8 46 10 50 11 59 9 60 12
3511 -9.5231637048301216 1.013274397949123 6.1435191139915757 71 67 64 0.2560584016645911 11 266 9 166 10 142
8598 18.793409044703992 3.5104759936366738 -2.3851315392947665 86 81 80 1.0309656643228726 47 144 53 125 50 128 59 77
6244 11.749216366961322 1.1697577302753068 3.8605075185010795 64 62 63 0.30574683444509254 32 137 34 170 36 198 40 197 39 188 44 212 37 219 41 213 43 285 42 238 45 259 48 219 46 230 47 229
1157 0.0032735519440113782 1.8373303249903803 0.75591980833334194 146 87 73 1.4434004553085933 11 16 15 12 13 9
3514 -17.472747042256973 0.76648630713003807 7.3509008885501412 19 14 18 0.47352529667370424 11 192 13 151 9 183 10 121
8601 8.7563814501919932 2.4349652615065152 -0.7433412479691387 66 37 38 1.6115679814687487 47 866 50 917 53 269
6245 13.953835557296381 -0.034768184831235019 4.2929505215020347 64 66 54 0.23566820483596365 32 192 34 188 38 191 36 207 40 217 39 198 44 224 37 209 41 243 43 257 42 261 45 284
1158 -2.7965781260229616 0.58062058382203874 8.3074134817847689 88 61 56 1.3727081148295861 31 8 15 13
3515 -3.0546053536859379 1.2463665508891144 3.461582649168772 145 142 135 0.39901092074074063 13 207 9 196 11 243 10 184 3 199
8602 0.50335168540050634 1.2434808081981128 -0.15842919431679484 142 112 88 3.4356358438074843 48 1349 50 957
6246 0.2064133367294515 2.749453036252234 2.8593757830362589 186 176 166 2.339114801621458 38 512 36 211 40 479 44 384 43 110 37 84 34 561 42 101 42 694 45 1602 48 104 48 938 46 122 47 119 53 143 53 988 48 1692 63 863 61 735
1159 -0.035153824803636824 1.368465871565558 2.3000847010677341 100 41 23 1.9553125623281353 11 24 15 16 14 23 13 23 9 22 10 30 3 24 5 19 7 24 4 18 6 12 2 14 1 17 8 10
6247 -0.47492312803240078 1.3829784163991248 1.3905295900108847 140 100 97 2.0775933765201553 38 201 36 216 40 237 45 470 42 151
1160 0.67514621394090402 3.517092651144615 2.9864850804908616 183 171 159 2.4326067533762643 11 31 15 17
1161 1.1350416212224326 1.7942877407067961 1.0990053876550621 145 72 55 0.90287443787560306 11 33 15 18 14 19 23 31 29 38 16 19 21 49
6249 12.089679818286156 1.2882370628176356 3.5255183381043285 22 10 9 0.99401084253959682 32 136 34 365 36 240 44 499 37 428 41 490 43 348 42 1003 48 534 47 237
1162 0.28015484841544752 1.4080611716876865 2.2626385817451728 220 210 198 1.3798051461448082 11 25 15 21 12 22 13 38
3519 -10.917723451650891 1.6871304290329467 4.3969279857553119 86 82 81 0.61421605478368202 13 279 9 242 10 248 3 216 5 270 7 237 4 215 6 216 2 347 1 214 8 224 73 177
8606 1.2136638845595236 2.0896474747902061 1.8127484950733974 204 176 166 1.8428519433847339 2 486 3 793 5 373 7 856 13 1251
1163 -0.57478137724489486 1.4203290160921729 1.0111605054823631 134 58 34 1.3490123682140869 11 35 13 24 5 16 7 19 4 16
3520 0.33107930087657605 1.5182029456717092 0.14284231785922694 144 73 51 1.8795260856625786 9 255 5 284 7 508 4 620 3 309 6 407 1 610 8 748 2 786
8607 -10.534061253473428 1.033587413299718 6.2956508903095045 51 46 47 1.5030261900929223 3 207 5 178 7 178 15 528 13 536 11 509 9 436 10 291
1164 -3.7355269273002873 1.0901418221116401 5.1844446167793174 81 73 70 1.6947366232641616 12 666 9 27 13 25
6252 11.490687450390007 2.3226137184379865 4.9119197353415318 46 41 34 1.3513641581535583 32 256 33 243 34 319 36 308 44 414 37 351 42 293 44 270
1165 -4.2589372433769928 1.1909351182139907 5.0953446068873571 84 75 72 0.556891246602089 31 646 15 28
3522 -9.947325882800202 1.8326657836523013 3.9406457965065851 92 88 87 1.1549777526484144 13 250 9 263 10 144 3 152 7 114 4 101 2 108 6 111 1 117
8609 -0.78929642880558604 3.0074671405632443 2.4522691052393131 190 177 168 1.7221479794056298 46 8 47 14 50 4 53 14 59 4 60 8 63 5 61 7 49 7 56 14 58 15 64 14
1166 -2.0567070614292664 0.12603836782934608 6.3683824626726429 199 185 159 0.85457668501062789 16 37 15 29 31 33 35 60 14 31 12 33 30 43 29 45 23 72 21 74
3523 -10.481880908012291 1.275215687385693 6.3966572014469438 83 73 72 1.5318166430525737 15 243 9 264 10 360
8610 -0.50155009930478067 0.91001069296074955 0.13057699533217357 160 129 108 0.44215027106784532 47 33 59 10
1167 -3.6164081442899714 0.11841423405858635 5.5153085693887745 72 68 67 1.4479218941245351 11 36 16 41 15 44 14 36 12 36 13 34 9 37
3524 -2.982683744491772 1.1499662517114624 2.854178429233369 59 54 54 1.1129448031527303 13 867 9 271 4 174
8611 -0.38916537184731875 3.1973257354571398 2.1482903123455479 182 168 159 1.1867230112265079 50 20 59 21 60 25 63 25 61 28 52 24 49 26 57 29 51 51 54 38 55 38 56 46 58 40 64 38 66 40
6256 11.461396501262962 1.1755850670458192 4.8999559097497452 89 81 70 1.4580017669630445 33 299 36 356 40 516 39 388 41 891 37 383
1169 0.36698732578286297 2.5865890474393152 0.79007002345875066 101 54 44 0.92172971962831385 11 52 15 48 14 46 12 41 13 52 16 30 9 49 10 53
3526 -3.3574286515653617 1.5401235334172112 3.2494127407682969 21 9 11 0.96232924045834645 13 789 9 278 10 479 5 769 7 405 4 358 2 803 1 367 8 713
8613 0.27631634503584518 2.163766689743404 1.323385046435849 143 70 51 1.5877433745393101 50 35 59 26 60 27
6258 11.993828461229265 1.3988432330343403 3.8934684809355447 21 16 22 0.68461903463575513 32 180 37 331 45 1110 48 1109 46 1204 47 1393
1171 -2.8554265371161489 0.091055750808076583 7.0858676498121671 80 104 52 1.2936377812865156 16 92 31 1367 15 52
3528 -20.529538301169698 -2.5080623832950031 9.2791674177954864 35 35 35 0.18071338404498655 11 394 13 336 9 288 10 258 3 250
8615 12.531777604451332 4.6555114603510903 -4.5899474076855524 179 167 155 0.65936062792448913 50 23 53 41 59 33 60 34
6259 14.478186426360496 0.14427845929467648 3.8735924739667809 51 42 35 0.3278458869978329 32 249 34 249 38 238 36 367 40 495 44 660 37 442 41 666 43 1221 45 999 48 1277 46 1720
1172 -4.4402918606213611 -0.35339775358326719 5.1551121324164626 63 52 51 1.1559260737355843 16 102 31 78 15 59 14 92
3529 1.1895651353896466 2.0031826408467315 1.2035055315509275 94 57 49 0.24393805281942271 13 180 10 916
8616 -0.65731868882592581 3.0005859942840418 1.9185835240493005 175 160 155 1.344970093284654 50 32 59 34 60 46 63 26 61 31 49 27 51 50
6260 0.020921145235614811 1.7985946216325235 2.0599531905273354 86 48 31 0.59411047253367422 36 396 40 828 37 534
1173 -3.8984539119837294 -1.903621917214428 3.8403156675410037 43 25 23 2.280472717911155 11 774 16 53 31 72 14 64 12 54
3530 -9.3190665014481198 1.6067258386595971 4.6953157286540277 105 97 94 1.2368761434964561 11 718 9 292 13 489 10 695 3 671 7 325 5 394 4 283 6 636 1 660 8 611 73 338
8617 -0.370930828431635 2.099809970600873 1.1427901991913374 212 198 185 1.9144883693061336 50 24 60 107
6261 0.1296917808305543 1.5672399202754126 0.40095200453569735 99 72 65 0.43975717416237781 33 255 36 407
3531 -13.815518465662654 1.0488223560122707 5.8898095676566466 27 23 20 0.96205489651095943 11 280 13 349 9 296 10 278 3 288 4 218
8618 11.372216694676549 4.6256899297953566 -4.7283480750680402 173 163 162 0.42095277875595022 50 55 53 59 59 51 60 54 63 52 61 45
1175 -2.1116343005628146 0.42009578396968111 6.3740124036057439 115 76 71 0.48956290092709165 16 48 15 70 14 67
3532 -20.604117436555644 -1.1107295508421828 9.0790738374429214 8 3 7 0.59952302095546128 11 300 13 325 9 301 10 262 3 248 5 215 7 257
8619 -0.54383983261938751 1.3876860632896375 1.2732137261615257 139 77 66 1.7037696176354651 50 67 59 72 60 78
