# 3D point list with one line of data per point:
#   POINT3D_ID, X, Y, Z, R, G, B, ERROR, TRACK[] as (IMAGE_ID, POINT2D_IDX)
# Number of points: 318, mean track length: 7.4238082116285478
11455 0.35780456976816072 5.7198261495390801 4.0753462841801111 30 32 29 1.727652041132858 45 487 33 446
5160 -8.8967542245019846 2.6591275517853692 6.8970114533078704 129 117 124 0.36895244644592079 87 1182 90 910 91 757 92 972 93 774 97 702 98 422 99 436 102 446 101 423 103 517 100 463 104 554 105 593 106 532
7178 3.7159050537380205 -1.3913180859117589 8.0470871280790632 155 112 103 0.96515875841555121 61 942 67 1047 62 764 63 894
12265 1.305157266479575 3.6078445486844886 2.3258132248306929 33 37 36 0.42695458310859591 24 172 20 134 23 154
12262 1.4344567798778194 3.448518649772788 0.99416056917072437 79 89 99 1.1935258556368753 24 125 27 99
12213 0.79312854439374147 4.1283389368234227 2.5161950163955176 74 74 76 0.76585833040704543 37 445 26 481
12209 1.2438346853292674 4.6415972534022938 -0.10646505724610787 167 163 162 1.832207466203831 36 523 26 456
5095 0.33187816792250235 3.6081089886537923 4.539222765456751 27 30 35 1.8982933284679264 95 239 90 228 89 168 94 76
8 1.6950165858369401 -1.7708964500085904 10.314329858746007 74 23 10 1.2026576944899192 76 15 70 21 74 25 72 20 75 15 79 16 80 19 69 19 84 18 85 20 71 18 68 20 66 20 67 20 65 15 64 23 61 16 63 16 62 14
7120 -0.35356853110004022 1.8128282863831269 7.9834958521902379 164 155 148 0.53869540518829107 61 675 64 413 63 395 65 492 67 757 62 415 59 364 57 335
12207 0.53755756631294127 3.4720309720078029 0.94838979607190033 150 150 152 1.9315243548161822 19 444 37 472 26 442 21 389
12194 1.5223166998095419 2.4086400825858889 3.3083959655289297 82 83 86 1.7185689385396088 19 321 26 315 21 309 27 213 30 689
12153 0.52854604410367134 4.1145347236158294 5.2652697791419705 121 113 102 1.5193108430593152 26 40 21 37 27 41 20 27
12152 1.416345445957603 4.1836528258628842 4.4452875708315389 113 100 91 1.2696348989352173 26 39 27 40 21 53 20 66 29 114
12138 0.67879221809049972 1.5548256066678008 3.4120080828741801 38 38 50 1.5636758393028358 24 544 32 543 19 575
12129 1.4983055511832821 3.7943796742789004 2.5686454928185052 35 35 35 0.777907920970625 19 509 26 470 27 396 20 626
7041 0.76588167756666292 3.5119905805091038 2.1522544487717168 79 67 67 0.6690353808715046 64 1024 63 991
12128 -0.50620297881077825 3.8090770650183643 2.8540648033118194 155 153 154 0.75037410379321734 32 178 19 508
7033 3.3233097864493253 -1.7505062275377399 9.9881603602626257 49 3 0 1.3074126805067003 64 960 67 972 61 963
12120 0.25678463602795465 3.8652706510935926 5.0999896238924256 37 33 30 1.2652934677821905 19 450 20 399 23 599
12117 0.73995861900563731 3.8831532630420713 1.6215607340325671 163 155 156 1.6587705498577234 36 411 19 430 26 268 23 582
13215 -3.1584638518650241 6.4916917029428838 -1.0769424769490035 14 15 19 1.198700685183526 17 540 31 549 29 663 25 612 22 604 15 443
11231 0.40106629706063185 3.7402392734558214 4.7398076397824029 0 0 0 1.0076282801007812 44 537 49 250
958 1.6890220058347973 -1.8529407743004878 10.499623662687545 161 111 111 1.8340606028929696 70 909 76 1517 77 1580 74 1484 70 1222 73 1328 72 1379 75 1439 75 1446 82 1340 84 1350 88 1329 81 1452 68 1175 66 1142 67 965 65 883 64 852 64 900 67 1015 61 880 61 899 63 515 62 588 62 883
1057 1.3728288357865583 5.2814405154527684 3.0103612880915396 127 126 126 1.7357066490474631 76 98 77 127 75 116 79 109 78 60 80 77 82 71 83 74 81 76 84 81 85 85 88 65 86 181 87 242 95 244 90 232 89 163
11330 8.6639686051695239 5.9544968717236495 -3.1163437035733819 135 134 139 1.1288966079497984 45 339 34 186 43 178 40 147
6144 5.4189724225973244 -1.671970123462615 5.6916367125422891 9 5 8 1.0504737087908762 71 856 66 409 65 399 62 516 59 880
7019 4.0309108581853677 -0.35356231275676159 7.9352915327045421 56 7 3 0.30169547087634985 64 856 65 813 61 851 63 836
12106 -0.21560734967984677 3.1958199353357517 0.95520795690108085 12 10 11 1.9151611007745082 24 570 19 330
13205 -6.2377607503624892 7.7824154553257303 -1.5595614624649612 15 40 70 0.38221353252498341 31 535 29 616 25 544
12096 -0.86657359014958124 5.4976869605518344 0.065500767649468397 147 148 150 0.87342120708869619 37 184 19 248
13197 0.17448434357016127 4.5631075392942648 2.2371221141633413 154 151 148 1.0914737287006475 31 672 29 558
12088 2.5850154285445774 5.2264517767019569 -2.6180674138562123 141 141 141 2.1456740498424827 32 350 35 436 24 526 19 188 27 189
3575 0.30612590503824744 3.875468863577622 1.9364303829735696 128 128 130 0.89694876051494932 82 1448 83 965 81 446 85 706
13848 1.3962944103012045 3.7610023499297598 2.378641476050229 0 0 0 0.26711509707268688 29 414 31 595
1218 -2.7952953538758583 0.89243847406535781 8.0408475310694651 72 41 20 0.7790254885388298 70 140 77 364 74 269 73 176 72 154 69 160
11491 -1.1223430178081704 2.4628265592652743 2.1698990234061464 20 28 31 0.27642969842520815 33 88 34 95 43 117
11392 7.5816523720122149 1.9788457197939318 2.1750150266887172 141 145 146 1.0860580846301615 45 124 34 284
1119 0.0044354326774519934 5.0254375758967429 3.9328370644677286 4 6 6 1.6317518865396132 73 1627 72 434 70 424 68 819 76 464 65 782 67 1223
6305 -4.9624340644083462 8.0456243897652211 3.6771234401726201 142 144 141 0.090333258239807437 91 1186 92 547
6206 5.5341748525188539 -1.5647326804857855 5.6892212525850541 151 142 148 0.6529021791206443 69 1145 70 821 66 975 67 646
12642 0.61427063475221166 4.2214830970869093 0.64843008669284163 140 138 139 0.19028425882169167 20 107 23 151
2369 2.8147728868441049 -0.50783185621719551 9.2222169759941846 119 56 49 2.0735069630212046 73 1716 74 826 72 786 77 934 79 690 82 666 80 670 83 672 71 697 68 601 66 650 68 1077 61 884 63 1071 59 808
12543 -0.39660779862446438 1.8573062222323018 3.2191507852067951 16 22 22 1.7705894978202936 23 21 30 22 17 15 31 19 18 26 29 12 25 29 22 25 28 18 12 18 16 17 15 19 11 22 6 15 4 18 8 21 8 86 5 19
7456 0.22091649447788431 3.9349322608150601 5.1129841233736668 3 4 1 1.2002460918160687 62 681 63 1021 59 501 58 213 60 202 56 198 54 143 55 141 52 147 50 190 51 153 49 188 48 124 47 118 46 148 38 185 39 227 44 183 45 207 41 251 42 223 34 205 33 151 33 224 43 242 36 310 40 509 37 202
12 -0.28647505944209944 -0.21807852324619192 8.9759618907290939 17 16 11 1.9037478779228201 76 28 70 25 77 33 74 33 73 29 72 24 75 29 79 34 78 30 80 36 82 33 83 28 69 20 81 28 84 31 71 33 68 33 66 42
10285 2.0876318171213932 2.9447228346940295 2.9276838885991547 141 140 145 1.9151124412725189 109 181 114 168 116 729 112 183 110 136
5099 -4.3041654029758316 -2.3255391052741627 8.9161706948155643 123 89 65 0.25796677658582812 87 412 95 414 90 259 89 377 94 378 91 362 96 256
5198 -8.6197530436389336 3.0417399100267519 7.1149413617687722 106 106 111 0.31234601489432334 87 1220 95 1131 90 1196 89 1055 94 1099 96 958 92 871
12643 0.53860190998294744 3.2093271807463504 0.84651352978359018 134 134 136 3.9193130229410356 24 164 23 249
2370 -3.0679965181421234 -0.46467333839529007 7.8001313365620684 80 42 21 1.2770881077573817 73 854 74 1411 72 793 75 1280 76 975
7457 1.245608872561105 5.5262323277370777 2.8311633807566081 115 111 111 0.55864239739831312 63 1001 59 503 56 660
5100 -5.1407081985401009 -0.47889739224771194 4.1860403921430853 106 112 108 1.7758892551537406 85 422 90 273
13 2.4486323424173819 -0.75252631304476658 9.3847134207124618 86 30 22 1.9347485577782138 76 29 77 32 74 34 73 30 72 37 75 30 79 17 78 21 80 20 82 20 69 27 70 35 71 31 66 37 67 32 65 25 64 885 61 31 61 881 64 31 68 1109
30 2.7742631671171036 -2.5180883438997705 10.790706544719715 59 1 7 1.2398618143481825 76 85 70 130 77 117 74 98 73 99 72 126 75 88 79 100 78 93 80 111 82 103 83 106 69 123 81 103 84 117 71 79 68 73 66 115 67 62 65 44 64 61 64 116 61 56 61 141 63 50 62 48 62 99 59 49 59 102
10303 2.4358120861054027 4.4628439770721364 3.6481802698748873 33 36 37 2.2944032848064593 105 683 106 661 107 424 107 713 113 735 108 398 110 752 111 294 112 479 114 443 115 521 115 734 117 815 116 726 108 785 113 442 111 736 110 765 109 734 114 587 115 738 117 817 120 718
5117 -2.7925680078463619 -1.4479091955915189 7.8153238745992724 29 2 0 0.49418155618216236 87 663 95 874 90 499 96 882
31 -1.9707155123102138 -1.5062403893616396 7.7472257508229179 108 79 41 0.95262796787458326 76 89 70 78 77 74 74 97 73 66 72 52 75 82 79 67 78 86 80 81 82 93 83 99 69 62 81 111 84 111 85 113 88 101 86 106 87 61 95 68 90 64 89 68 94 62 71 62
10304 -1.22778882215909 2.6410219009981697 0.15769942152946076 3 3 3 2.8854977245253424 108 6 116 6
5118 -4.0624368527182417 -4.0019475264237068 10.727882631925317 41 11 0 1.5410207641252063 87 1043 95 686 90 508 86 982 88 1161 89 432 89 647 90 872 95 1019
12662 0.14421047792783123 5.0793802716266283 0.3001519165386573 150 150 148 0.12713754377861641 23 82 30 70
2389 -2.1806628498326797 -1.1286707416084432 6.7080846729175558 121 101 86 0.64170530743805732 76 1236 72 970 79 1341
7476 0.028634688082638284 2.6513237136084045 7.0130513408784587 171 170 166 0.89923162824192993 63 1 59 748 57 775 58 732 60 607
32 3.596735528917042 -6.0220189701967106 14.26208027281292 158 148 144 0.93582009545253142 76 96 70 139 77 108 74 113 72 92 75 89 69 128 71 123 68 108 66 139
5119 -3.9283982704667797 -4.6437047553072874 11.610819789305882 101 84 71 0.36941507073110613 86 988 95 1298 90 510 87 1049
3498 -0.68926363769618249 2.890887999164415 0.54896716618475616 152 154 153 2.1346491838901951 75 1766 78 1341 82 1416 84 1500
13771 -5.1537376650707616 7.4276436835255177 -1.9140630526943265 49 83 129 2.4654373587344569 22 560 25 481 29 349 12 609
3597 1.11596773855168 0.060592520359485078 3.7889411276555656 0 0 0 1.9886577939839052 78 1324 82 1165
13870 1.7765324875568425 3.5192928205671823 2.6901465674622549 74 77 82 0.37199829002853418 12 762 16 619 15 663
1141 -3.7794597130058625 1.2863924065104333 9.0647688459939282 72 45 17 0.80512378203648338 76 42 77 40 74 37 73 49 75 42
6228 0.48182378465875431 0.49178379758202601 9.0976671008294314 101 97 93 0.8197689247562937 68 1133 71 686 66 1253 67 583
7477 -0.015297385626791227 2.3930553098334859 6.7775448229326596 185 184 179 1.4108933229561034 62 536 63 215 59 751 62 217 57 406 60 398 53 343 56 197 53 190
2390 1.223639398708569 3.3400596117219505 4.99715458768351 27 27 29 0.31086420236257584 72 977 79 168
12663 0.31116509978873008 1.1199674916703413 3.2705155893462412 6 6 4 0.11090382495397789 20 18 30 74
5120 -5.4338867952072407 -2.428586833410364 10.070624194515915 31 2 0 0.45032238057979013 87 1153 95 483 90 525 88 1239 86 877 89 477 94 379 91 329 96 329 92 250
33 1.275739707316645 4.6804717147273083 3.3034905757606521 120 124 127 1.8518935509756962 76 100 77 129 74 108 70 108 72 113 75 110 79 80 69 72 71 105 68 123 66 97 65 90 67 210
13772 -7.6134167975992613 5.8496186261353751 1.1573769311933517 13 16 19 0.16046723335628924 25 622 12 616 15 576 13 500 2 459
3499 -0.67120472514536045 -4.1356046275068721 10.286542454956987 74 69 73 1.9140079836669621 78 389 80 404 82 352 79 419 74 446 75 374 76 277 73 982 77 1347 72 1114 83 350 81 272 85 220 88 197 86 156 68 278 68 1034 71 308 66 297
6229 -1.2494502101855967 1.9121376629507358 1.6337699060239526 32 31 36 1.7734203257223378 69 620 71 728 66 1256
1142 1.1112004403548541 2.6860987812858474 3.587604745778517 34 35 39 1.7916420647093527 77 56 74 38 79 45 80 45 78 42 82 46 83 42 81 45 84 37 85 50 88 57 86 38 87 52 95 47 91 52 96 59 92 45 93 45 97 47 98 25 99 31
2391 -0.43683943985037538 2.9756891535568615 2.8737773983178845 24 25 29 1.7311893531040361 73 638 72 979 69 513
12664 -0.16760241463815412 2.6848762064302809 3.7491321213122286 127 128 130 2.1854436559222816 23 55 30 75 31 250 18 292 29 284
7478 -1.5659853638840182 2.2103583449479407 0.92306719191524889 0 0 0 0.06154241473405004 63 1103 64 1141
34 3.6528426813715602 -6.4533056616611217 14.223713346095931 52 42 33 0.23932473662349663 76 106 70 100 77 104 74 115 73 114 72 89 75 92 79 90 78 80 80 79 82 100 83 119 69 87 71 72 68 77 66 84 67 88 65 110 64 100 61 77 63 69
10307 -3.1985729534854768 2.6880457807119762 2.8991889948220981 145 144 139 1.2560159448354775 112 21 114 42 115 13 117 9 119 4 116 7
5121 -0.1726545531088306 3.4296424705344553 1.5781839802608544 146 143 142 2.1354448195763074 84 463 90 545 89 84
3500 -4.0166255774032651 1.4896986363460005 6.3342517551617288 8 7 5 2.4341802868676954 80 32 83 88 81 359
1143 0.39940111637944797 0.17042448820995185 8.5598684860092167 155 148 145 1.2056143958802361 76 67 74 41 73 47 75 69 79 75 78 65 82 43
11416 0.19785542251837107 3.7649340239207265 5.1624139999656755 117 112 109 0.32589084466751989 34 304 33 187 42 198 43 243
6230 -1.4324015451627379 0.37359161890055131 6.5614593133641002 138 135 132 1.4363009173336556 73 814 74 1667 66 1272
3501 -0.14757520645781017 -1.7587831679246768 8.2051484113261797 189 183 187 0.93243363859037309 80 115 82 90 83 101 81 91 84 59
13774 -3.1566553426805637 6.4136942533353789 -1.2666179251052081 2 7 11 0.35707463124465494 25 609 12 633 16 604 15 775 11 599 4 526 8 501 5 439 7 434 13 559 2 390 1 472 9 661 3 477
3600 -3.1748874642035254 0.24820760661125896 7.980823880191168 52 13 0 0.20954891456460364 80 1222 82 947 83 1193 81 1469 84 1167 85 1390 88 930
1144 -3.2747100737900672 -0.78809123388720093 7.6051751725824657 39 4 2 0.58152615336073321 76 36 77 45 74 43 73 46 75 36 79 41 78 39 80 42 82 39 83 39 81 39 84 40 85 101 88 43 86 37 87 48 95 42 90 44 89 51 94 41 91 44 96 46 92 38
6231 0.5868374101509648 1.1132984303474847 4.5074286869870939 58 58 58 2.1362887008313107 71 677 66 1276 68 687 65 1135 64 1126
12666 0.91833283695855261 4.6437457339800376 2.7054079493346914 76 76 78 0.58195719647250599 23 94 30 81
2393 2.6773018064988992 4.3660506825900889 3.4619852019545672 169 158 152 2.2995814920957169 70 1311 73 674 72 988 75 488 78 1392 78 1396 80 948 82 432 83 446 83 610
135 0.41768493593924971 -7.4819792428952425 12.652630530164858 12 6 6 0.21361585155530519 76 618 70 536 77 612 74 970 73 870 72 821 75 870 79 551 78 516 80 542 82 528 83 537 69 534 81 556 84 605 85 611 71 511 68 469 66 465
10408 -0.23006800502078334 1.6357397674360192 2.8557402125797409 175 171 172 0.991525200184461 110 860 119 839 118 695 103 624 116 655
10309 -0.69658782201114655 2.0806431257262665 3.0122036577723761 167 161 156 1.0002179750544837 115 6 116 8 119 7 118 5 120 8 121 6
36 1.0904340531254171 2.3205312282446728 3.5286472712233263 81 82 84 1.3096674521914791 76 110 70 104 77 132 74 185 73 189 72 118 75 160 79 121 78 102 80 161 82 110 83 113 69 97 81 124 84 132 85 129 88 115 86 126 87 103 95 115 90 77 71 93 91 82 96 110 68 83 66 148 92 128 67 101 93 93 65 140 64 131 61 129 63 76 62 103 97 86 98 90 99 61 98 58 101 74
7480 -0.47291116239746211 3.7758635758120658 2.9043239907635452 15 16 14 1.1698064114900555 61 1006 59 786 57 407 62 958 60 377 59 511 53 268 56 268 54 387 55 305 52 265 54 522 51 256 50 260 49 290 48 218
3502 -6.1212969483713424 -0.0035037616112132955 8.2579591143511006 51 67 80 0.72776831090895833 80 68 82 102 83 104 81 92 84 114 85 116 88 99 86 109 87 148 95 133 90 138 89 157 94 131 91 125 96 138 92 115 93 118 97 103 98 102
13775 -7.2491050395976728 6.9148277314756816 0.72254719759165065 10 10 10 0.54933849631922671 25 600 29 504 12 645 16 597 15 588 6 542 5 522
1145 -2.2961304441122166 -2.371717723421543 7.8135767420183617 135 133 134 0.7247030437461045 76 39 77 47 74 45 73 41 72 39 70 47 75 39 79 39 78 36 80 39 82 56 83 53 81 59 84 57 85 64 88 75 86 59 87 66 95 65 90 42 89 49
11418 0.40518872831862485 3.4158373543291565 4.0066475393165684 5 5 5 1.9316084158846127 41 535 43 207 36 506
6232 3.1547483223449038 1.4547325225689614 7.2504518783937764 166 163 158 0.45860446247685177 71 1403 66 1285 67 1236
37 1.0689550472979306 5.5709362145613062 3.4873038389298849 87 87 85 1.5535951227218743 76 111 70 111 77 126 74 138 72 111 75 165 79 164 78 139 67 96 61 99 53 43 60 56 56 52 55 154
10310 0.97893060077000038 1.837241800697635 3.2553883308737537 0 0 0 2.2221593848354741 110 23 116 10
5124 1.2172790432398211 5.3608523885324866 2.7406957902464129 38 39 43 0.66399214616731972 87 307 95 604 90 570 89 1115 94 555 91 532 96 1146 92 449 93 558
3503 -6.520798689712044 -6.6566048873070018 13.246876361496973 143 146 147 1.5462650797248301 76 133 78 119 83 146 79 863 81 137 84 152 86 144
13776 -3.0292746616596125 7.3268889910913 -2.4025160311333562 134 135 139 0.37926703360160391 25 589 12 646 16 716 20 428 11 541 6 551 7 561
6332 0.514661220063519 3.0593152077380532 5.1249848485504357 85 88 93 1.3847317747348509 96 411 92 798
11419 1.2121641985670368 3.0271295083857224 4.4052880311544689 13 10 11 1.197241730955559 34 353 33 218 43 160
1146 2.4148808109423747 4.6893288841142589 4.0192290402030419 135 122 116 1.6909647072253617 76 48 77 51 74 51 79 50 82 76 83 123 84 126 81 118 88 162 86 178 85 132 87 172
6233 1.4666698130165796 3.0833558600519373 1.1345328045911991 163 157 159 1.8413459312483216 66 1313 65 1171 64 1101 61 1103 63 1054 64 558
7482 4.2168744698842211 -1.7525779558832406 8.6677471339620311 175 155 148 1.0038081744300615 61 641 59 870 57 452 58 260
2395 0.51301200225715116 -7.3970283913684662 12.584971828607038 170 165 162 0.76109063654187969 74 1192 77 1255 72 1001 75 1111 79 1099 85 779 71 902 66 708 68 304
5125 -3.5611076914632247 0.92013689678597499 7.6205611542170297 41 8 0 1.5190473354789089 87 616 90 574 86 798 89 740 94 1010 91 988 88 1332
38 3.4263239714502727 0.74954554273822283 7.1058177846978783 77 0 7 0.69095924433380596 76 113 70 101 77 103 74 107 73 118 72 105 75 114 79 115 78 101 80 119 82 157 83 105 69 77 81 117 71 87 68 81 66 94 67 106
3504 -0.03765246386905205 3.5728533463458563 3.0583629682945963 6 6 8 1.5084060732325011 82 229 83 162 84 182 80 228 85 183 88 166 86 176 87 178 89 226 94 214 91 212 96 217
6333 0.16059555298259931 2.3908497448886901 3.7340704763807606 165 170 166 1.297129428917895 90 1187 92 802 98 279 99 177 99 684 102 230 103 273 107 293 113 399 111 373 110 390
11420 3.4283271148855636 2.384482725856186 5.5993097961391296 169 158 152 0.75787311757186104 42 522 33 223 43 459 35 429 36 328 40 336 37 333 32 338 19 210 26 220
1147 0.94868070127112714 3.999962285719874 1.9550416960644168 11 12 16 1.4248141203220048 70 31 74 52 73 35 77 44 72 34 64 19 63 23 62 21
6234 3.8588026943125091 -0.57448113862722761 8.5123825587029085 58 5 4 0.10814081238767544 69 1353 66 1316 71 1093 61 866
13305 -6.7906137061010643 8.3087913434320235 1.0162223451823509 44 57 65 0.056264283916718498 18 322 29 323 25 375
3032 4.3440392034941349 -1.2774745126585232 9.1560691564896572 54 5 1 0.31919594188221967 75 1269 79 1318 78 1210 76 1764 77 1549 80 1543
10948 0.047825223250772556 1.3698680078130263 3.0308911107591308 42 33 31 0.086973466360319746 46 382 39 286
675 2.617758763961672 -0.093952345241584759 8.3930216632544781 156 122 104 0.70532307793097393 70 760 76 827 77 926 74 846 73 803 72 798 75 633 78 640 80 550 80 667 82 664
10312 0.12468457253857569 8.2811942814931889 0.3945491545069163 120 110 111 0.31876549329163989 114 95 119 82 120 80
39 3.922217307088268 0.52503365102600441 7.4028183606642246 76 0 9 0.60291472087320686 76 114 70 98 77 112 74 99 73 128 72 102 75 104 79 123 78 100 80 106 69 78 71 86 68 80 66 93 67 94 65 78 64 74 61 90 63 75 62 71 59 68
2396 -0.49325572678735385 2.1638461804249021 -2.1755648954455746 0 0 0 0.51045172458690713 76 1201 77 1206
12669 -3.3355155342099758 6.9251028947097684 -1.9147457730198361 14 17 22 0.63848933584342293 20 85 23 86 30 95 17 87 31 136 18 139 29 128 25 145 22 152 11 203 4 160 5 168 13 243 10 284
7483 0.42546654357905478 0.69490876125332546 8.3276268864125722 190 183 173 0.89755440738355297 61 1082 63 1098 59 873 57 761
5126 -0.14617132660259499 3.9046363856924051 3.257869620619346 151 149 154 1.9402872541332641 87 1463 90 583 94 1201
5226 -2.8955913383769749 1.4282463001219667 8.602105137706431 39 11 1 0.72274041885235396 90 49 95 60 89 55 94 37 91 38 96 32 92 21 93 20
10313 1.4629730357461168 3.4194451130660841 4.1295589008451765 45 49 57 1.2725083849693204 116 117 117 143 119 130 118 132 120 102 121 124
40 3.6877351308787452 -7.3391568819274848 13.132931642984635 141 142 137 1.2425102230448826 76 116 70 149 74 134 75 119 78 114 69 138 71 110 68 114
5127 -8.3070409595482406 1.5668038597755198 7.7804848799368935 99 93 97 0.49333146966394514 86 1194 90 596 88 1320 89 590
41 5.520744590867861 -4.5908800665846998 11.736546204342677 166 165 161 1.0461879983875577 76 117 70 90 77 96 74 110 73 101 75 84 69 86 66 120 67 90 64 125
6237 0.28949633661752894 4.003370684618301 1.8465815210661267 94 94 96 1.6357666626330016 67 1151 64 436 63 658 59 365 57 423 58 724 60 79 60 249
5129 -8.0070370482838342 2.4764874443901235 6.7393982822844647 159 144 144 1.9155310516863651 87 1232 90 644 95 1159 89 1020 94 1141 91 1058 92 1138 93 786 97 717
5130 -0.34333146522722313 0.84189618581349401 9.00310397718874 120 115 112 0.42127118925280888 86 1431 90 672 87 780 95 594 89 974 94 919 91 1174 96 1147
43 1.9422542763234509 -6.939221640616994 13.821099566189181 142 137 134 0.8774213141295536 76 125 70 122 77 98 74 148 73 155 72 84 79 84 78 107 80 96 82 125 69 92 81 101 71 117 68 128 66 100 67 76 65 105
10316 0.37707962262269434 3.7016530871119717 5.3530060470477316 141 128 120 0.47483175217579499 115 232 119 214 112 219 114 225
5229 2.0518310854276898 3.3846815381289139 3.8321623778982308 143 133 131 0.86320264677862113 94 50 96 39 92 28
3245 -5.3912087193572713 -1.986728857557907 9.3090503873434756 115 99 102 0.20397908700521528 75 1420 76 1237 79 1328 80 1057
13518 -7.9113999098921086 7.3881525204037919 -0.33285266528786822 29 32 37 0.87179671658632119 25 538 29 555 22 557 28 566 12 614 16 718 25 248 15 412 11 548 6 516 4 615 1 549 9 402 14 328 5 411
5131 -0.81758419667869109 2.5607744814294895 0.35037039339408882 60 60 62 1.3046040888144224 86 1461 87 1420 91 1177 95 1361
12576 2.1242730464555408 3.5116237710941394 5.1428625364105649 148 135 126 0.9615759561426146 21 534 17 310 31 339 18 508 29 193 18 265 25 261 22 328 16 267 15 348 11 352 6 252 8 182 5 461 13 202 2 208 2 436 10 187 3 431
2402 -1.7638810743965037 -8.2061561708164845 12.591834594644768 139 138 136 1.6410988183243866 70 1032 77 623 72 1077 76 572 79 1116
12675 1.7474911437043876 3.4146206939441779 5.1313200094018248 105 96 85 1.4046529685097227 20 131 30 140 17 108 31 144 29 152
45 -1.0153530589043911 -6.5917284145089825 13.301144110888295 131 127 126 0.52072851612723403 76 130 70 143 77 161 74 172 73 156 72 138 75 130 79 136 78 115 80 143 82 144 83 153 69 133 81 143 85 134 71 119
5132 0.073988165526506985 3.3586745972140806 3.5624022676829221 48 49 53 1.4357850108056138 95 1056 90 682 89 710 94 665 91 779 96 524 93 402 97 302 99 265 102 248 101 220 104 279 105 306 106 292 107 278 108 258 111 360 110 458 109 417 112 509
1154 1.8322843822956727 -8.0420425984003021 12.315656318026958 119 114 111 0.70146958258810332 70 68 76 63 74 73 72 62 75 61 79 62 69 57 71 50
11427 10.064801632190601 6.4060526186086557 -2.0647105344967058 195 198 202 1.5741403489001022 34 457 42 337 33 295 43 364 35 317 36 396 37 461
6241 -0.45357404432597076 3.0374837153961063 2.4190780024480345 16 17 19 2.5516417551909263 71 1336 66 560 72 233 70 1345 67 467
12676 -0.31811748638376075 1.3478671739014874 3.2476997065531878 6 9 14 0.749005272947175 23 217 30 144
2403 5.012303971719728 -8.7232672983513346 12.821525254111643 149 151 150 0.65852616417200993 74 1161 77 1216 72 1082 76 1176 79 1109
891 3.6864445235954175 -0.065351296169075493 7.887627267373567 58 7 4 1.1061372844515664 70 1213 76 1671 77 1452 73 1653 72 1280 70 1209 75 1620 79 1617 80 1531 69 1373 71 1128 68 1103
11164 0.041031659840014452 4.24942318734744 3.2635645716736481 11 13 11 0.84682818734593501 45 15 41 18 34 20
7490 6.5228189936818968 -0.24067868064340794 3.3995475838748552 219 213 217 0.55936239145382194 62 489 63 549 59 473 54 320 55 317 50 562
5133 -8.5247250737267883 2.6055812558845606 7.2999836524867794 134 118 112 0.73993006789625093 86 792 95 661 90 691 87 618 89 623 94 749 91 1005 96 540 92 375 93 791 96 1038 97 568 99 281
46 1.797357462803834 -6.0860474245017544 14.741455263602449 52 40 28 0.470435063790625 76 135 70 137 77 165 74 166 73 162 72 143 75 137 79 144 78 132 80 127 82 137 83 94 69 116 81 153 84 105 85 108 71 169 68 100 66 160 67 170 65 148
10319 -0.48707852531771312 2.9569720085277735 0.58556904402240273 36 38 37 1.368893803067383 110 379 119 256 118 123 120 191 121 187
2404 -0.30460847217665277 -4.5052607732896508 11.257084489871421 121 95 77 2.0328616674761855 77 1340 72 1099 79 1187 69 1162 68 1355
12677 -2.5471622780290564 5.4495814064515926 -1.4499252750104126 0 0 0 1.4350024235595888 23 183 26 323 20 164
5134 -7.8779815637203274 2.3903250863744918 7.8276951413284275 146 145 141 0.20656513982530533 86 795 90 695 88 804
47 3.891373640830293 -6.4219768799075867 13.59712517736377 146 143 140 0.63748476996660342 76 141 70 142 77 162 74 171 73 158 72 130 75 95 79 141 78 131 80 139 82 120 69 132 71 120 68 111 67 125 65 116 64 113 61 120 63 88 62 123
10320 -0.17493128129218607 2.8685097359365788 3.6719363729010901 163 163 159 0.78780893395115692 109 529 119 299 120 185 121 134
5233 1.8236556388868934 3.9469659040495899 3.4431692780819092 135 125 124 1.1249405092610312 90 70 95 85 89 116 94 164 91 105 91 168
12579 1.7822830376126619 3.0120206575532498 2.7533024155660848 93 92 97 0.57599960603022415 20 309 23 361 30 364 31 373 18 356 29 427
2405 -0.18711524810550129 -3.5775826860108388 9.5758945822522499 41 17 6 1.7171081565829038 70 1046 77 553 74 1290 69 1458
12678 -3.7642997710228228 6.7337642816199779 -1.127847562462017 45 52 55 0.50542277078728437 20 167 21 99 30 164 17 203 31 212 18 232 29 223 25 306 22 302 28 279 12 324 16 480 15 269 11 408 6 545 4 384 8 431 5 527 9 658 3 475 14 531
5135 -4.1553499856728955 0.93516396673693192 8.4473459172841814 73 36 20 1.6056947888935107 87 772 90 700 89 580 94 834 91 1010 96 972 92 892 93 857 97 894 93 911 98 565
48 4.4022066841738932 -6.0303446378894368 13.864933874321416 155 151 148 1.0091766818011638 76 143 70 136 77 107 74 168 73 161 72 90 75 91 79 142 78 133 80 128 82 136 69 129 71 121 68 109 66 85 67 89 65 72 64 90 61 76 63 68 62 65
10321 -7.9981140799654513 9.6203439070887296 -0.35312549158135231 0 0 0 0.45915955660334795 110 476 115 749
5234 1.8025121214470128 3.3080679568952926 2.9067863604185527 66 67 71 1.5591878985950809 88 87 90 114 89 118 94 89 91 156 96 212 92 179 93 185 97 219 98 264
3613 -2.8970125746692394 1.7290265358224404 2.8015622235701914 114 114 117 0.9579054565937497 79 478 83 1274
6343 -11.663136576975353 3.6222707509891174 7.5171793039547214 99 98 103 1.7621495565610754 91 1243 96 717 92 920
11430 2.3947082420558337 7.4552062322475825 -2.1418189498386564 173 174 169 0.28021202188032851 42 335 33 301 35 277
1157 0.68586681902297342 5.0014043270379247 4.0501694504351846 111 115 114 1.650162765107865 70 109 74 77 73 124 72 112 83 122 71 209 63 22 59 21 62 38
6244 5.8252184252815358 -4.7529293078033863 11.313951187465822 43 36 34 2.1366098053679932 76 510 69 1147 71 1064 68 894 66 742 76 1733 70 1113 73 1272 65 815 61 706 62 676 63 1127
13315 1.7890831540820424 3.2000264340285356 2.2678008716871663 89 89 89 1.5160243619720675 17 410 31 592 25 407
3042 -2.560653783813915 -1.0494899006566614 7.4876659195835042 135 89 61 1.2532413593102509 75 1390 78 1303 81 1102 84 1374 85 1416 88 1373 86 1314 90 913 89 893 96 589 92 635
10958 7.3717614080713281 7.1655264374563918 -2.0933643934263086 160 158 163 0.60604618788623688 48 127 39 368
685 -0.71456071113333697 -2.2467130624400209 8.1204758997418782 22 2 1 0.95877571928748595 70 467 77 946 74 1015 73 936 72 1138 78 1255 69 973 81 765 84 571 85 1037 84 1163 86 1246 87 738 95 648 71 1007 68 402 66 422 67 1056
2406 -0.49260075745092857 -3.1891941621497795 9.0965690955269878 116 75 45 1.27897692616018 74 1224 76 1292 77 1326 72 1113 75 1158 78 1018 80 1087 80 1092 82 1129 83 1599 84 1265 85 1004 85 1296 88 972 86 895 87 1148 68 1024 66 941
5136 -1.0996284147062609 -0.22514008497852342 7.5038827674035318 142 145 154 3.2906792783862842 86 791 90 701 94 997 96 496
49 -1.3194681348960773 -2.4548443462764973 8.2931092986639907 9 4 1 0.41457087107351398 76 147 70 92 77 113 74 109 73 100 72 81 75 141 79 146 78 134 80 129 82 135 83 140 69 83 81 152 84 163 85 172 88 143 86 160 71 75 68 70
12680 -4.8364900140417353 7.4161514877939299 -1.7419541966202368 79 119 148 0.45320605896255256 20 162 30 172 17 210 31 221 18 256 29 249 25 252 22 243 28 267 12 254 16 324 15 275 11 393 6 307 4 385 8 303 5 308 7 407 13 326 2 284 1 304 10 290 9 359
2407 0.2945360446073601 0.26951393967391873 8.4925648970614098 110 109 104 1.4241262636868437 70 1399 74 1631 72 1136 69 896 68 573 71 673 66 732 62 422 63 510
5236 -10.135604517440195 4.0450592333916875 8.1782375643308978 120 127 135 0.39571689003247235 95 187 89 185 94 240 91 284
10323 1.4199378730738037 2.6093346408868983 3.9550434384938922 70 77 83 1.3345298113549713 115 386 119 370 118 371 120 347
50 -1.1623028007446936 -2.1064273098513979 8.2698438248357569 14 2 0 0.34166179130798147 76 150 70 131 77 172 74 156 73 168 72 127 75 144 79 124 78 183 80 131 82 133 83 143 69 149 81 157 84 167 85 175 88 136 86 200 87 142 95 94 90 135 71 76 68 71
5137 -9.3650992391081349 0.81698656862738583 8.1997681228389965 70 81 84 1.650542396799501 86 1474 87 656 95 872 90 724 94 331 93 369 92 833
51 1.494280417377071 -4.4639217089507923 13.784361893655628 161 152 150 0.61083246372816735 76 152 70 132 77 173 74 157 73 169 72 125 75 145 78 152 69 121 81 130
10324 1.5649471246356754 2.3175603373381892 3.5540672800361719 67 75 79 0.91716808811555539 116 271 117 320 119 375 118 377 121 365
13790 0.79723855662228749 4.6777161700114611 1.51692368954034 0 0 0 1.3970459684513448 18 394 29 750
3517 -0.55163270985130497 -6.7898052084571621 13.317256740048029 134 128 128 0.73356767022470082 78 378 83 338 75 1049 76 424 79 408 74 458 81 345 84 459 85 323 88 385 68 316 70 387 71 355 69 349 72 397
6247 1.0873285133489687 4.6401114662045106 2.9685370265209374 33 34 36 1.6702604189938333 68 523 69 283 61 87 63 158
1160 0.87585924964378936 4.9353815841548911 3.6021732847804708 88 92 91 1.2121481548071724 76 99 74 83 58 90 60 82 53 73
12682 0.10392108420598166 2.5031218579849353 3.7500649524065373 34 36 33 1.6605156375257839 23 234 30 187 17 130 31 366 30 718 18 276 29 361
2409 -2.614634730028754 -2.6220621077042012 8.1459179146754632 89 63 46 0.5975074756047497 70 805 73 1233 74 931 72 1147 79 993
12583 0.77859966631269184 4.209760259285984 4.425874761933275 26 24 22 2.3529916696103053 23 377 17 572 31 750 25 787
52 4.1847393482249045 -0.91200626253515082 8.7508419220278917 74 26 15 1.3626848707445018 76 154 70 151 69 143 66 117 65 112 61 140 62 88 59 90 57 89 58 612 60 66 60 486
10325 1.9839756001895921 2.8039000181094682 2.9136535296056771 63 70 78 0.20234189723880258 115 458 119 377
5139 -3.1576209690518762 -1.7179705377768262 8.158916124971384 58 26 3 0.27610004788977693 87 816 95 868 90 728 89 525 94 477 91 465 96 449
1161 -0.043157019343527579 4.8238694769375261 3.5500039782217243 25 31 31 0.99869437563186203 76 101 74 84 79 113 80 120
6248 0.77640473093520934 -5.862484754450489 13.33698786519715 133 121 115 1.8999016128869886 72 835 66 392 70 822 73 614
12683 -4.7354511964957231 9.8713587879823592 0.42961998709239446 55 59 62 0.13901816035803563 20 169 23 195 30 206
2410 -2.3167605968848686 -6.8304435231703771 13.160398021372346 118 117 115 1.0953089703290402 73 1106 77 1161 72 1153 74 1735 77 1804 75 1072 80 1570 69 933 86 1449 87 1029
53 -1.1540074567583671 -0.89359504259174638 7.4319595279749144 98 95 104 1.2353344752579505 76 159 70 94 77 145 74 197 73 196 72 97 75 149 79 161 78 126 80 151 82 130 83 156 69 127 81 129 84 162 85 148 88 131 87 165 95 168 90 171 89 148 94 135 71 82 68 67 66 92
10326 -0.84510690945131761 8.1492165156614877 -0.30892791942707881 148 147 159 1.8252303619854795 108 418 119 396 111 388 118 687 111 671 120 687 121 533
5140 -2.9540691871149045 -0.61808122077851479 7.6933038728510255 107 67 43 0.76058166630221535 87 1260 90 731 91 765
13792 1.5208443287552731 3.1006830591279795 1.2543272123035636 152 138 137 1.7013942833708762 12 749 16 674 15 707 11 191 6 339 22 438 4 177 8 150 7 633
3519 -5.849851100073872 -1.670065578502359 9.5578891122661638 6 3 10 0.71189121353581919 75 683 78 367 83 381 81 389 84 575 85 592 88 577
11435 6.7988502016656076 4.8668260092708611 -0.57562150948735025 0 0 0 1.996765849451797 38 391 44 409 45 384
1162 0.59409676297052583 4.3594082986906564 2.5327223546989224 101 102 106 1.5587909082728282 70 73 73 38 77 27 72 49 69 73
13693 2.517958907945693 4.5065828252704367 4.0566302772115357 135 122 114 1.0960066171020584 28 39 12 47 16 43 11 33 4 41 5 31 13 28 2 28 1 26 10 12 9 19 3 24 14 26
6249 -0.28602522519497336 -0.43395557632830095 1.1396200091100093 137 137 139 1.5260728820115008 71 299 66 807
54 -1.6499980148557014 -0.81376271331961803 7.5133890027416594 20 29 44 0.6044423021272487 76 160 70 170 77 148 74 199 73 191 72 166 75 178 79 173 80 173 82 129 83 172 69 135 84 285 86 279 94 156 71 130 91 144 68 79
10327 0.96267036867173317 4.2745155914822082 3.0018594331778821 93 96 105 0.68469839475653083 114 649 117 838 119 429 118 830 108 390
1164 -3.1136493201060866 -1.4113491881056939 7.4932680445229147 126 92 55 1.2087152774564622 76 54 77 60 74 96 73 86 72 51 75 53 79 68 78 51 80 66 82 60 83 58 81 56 84 60 85 68 88 71 86 57 87 64 95 70 90 65 89 98 94 104 91 94 96 100 92 85
6251 -0.63367926382038953 3.9955986712562814 1.4315083855224273 0 0 0 1.3439876075574546 91 1 94 3 96 3
56 2.1148277569659473 4.8209662358336818 3.7464012538995908 114 113 108 1.2478377514952803 76 174 70 236 77 195 74 130 73 200 72 170 75 167 79 165 78 156 80 153 83 170 81 182 84 193 85 205 88 168 86 179 87 171 95 169 90 157 89 115 94 160 91 159 96 159 93 182 97 168
5143 -1.7193151781539526 -1.5782729336049788 8.1663208707380601 36 7 10 0.25681339184440544 87 705 95 792 90 743
13795 1.5583635270896774 3.2802074457822017 1.886686145918276 151 146 143 2.0138208102760098 12 777 11 677 4 339 7 231 13 365 1 604 14 566
3522 -8.8576972975635115 -4.6624329014563752 15.021771235675464 23 27 38 2.2304295635565548 78 347 79 374 82 990 83 416 80 414 81 425 84 397 84 1097 85 447 85 1539 88 454 85 1132 80 879 88 756 86 413 86 732 87 402 87 1526 95 563 89 648 91 742 96 732
5144 -5.4597214857635592 -3.1023393465253744 10.814361613510606 127 86 64 0.27666259680365018 88 620 90 764 94 507
5145 -4.9619267917676515 -1.6078076103692884 8.7238331308722827 118 95 89 0.25242879775493882 87 532 95 515 90 779
6254 -1.776148838982595 3.0227716850626196 0.59958300342870674 95 83 69 1.7966287802254046 91 2 92 4
10968 0.68971224982559554 1.9451516715030375 3.9532366124211173 149 139 138 1.6350668816400991 38 536 39 440
695 -0.32431085255315434 -3.2442309960588513 9.1288163678232337 93 59 36 1.7907062804942622 70 1524 76 1011 77 960 73 1189 72 1105 75 361 76 189 79 174 79 1128 78 169 78 1027 80 272 80 883 82 343 82 1132 83 192 83 1173 81 194 81 1233 84 1532 85 170 85 1292 88 144 88 1271 86 159 86 1108 87 1152
59 2.7448004513051538 -5.7095252518906348 14.000507410043467 165 156 151 0.55022107568671885 76 187 70 186 77 213 74 217 73 343 72 188 75 182 79 183 78 180 80 192 82 193 83 182 69 181 81 185 71 168 68 148 66 244 67 166 65 156 64 151 61 155 63 192
10332 -5.1453504666218164 6.6750575899666016 -1.9901499375963376 57 101 146 0.3769844147625982 112 351 114 301 119 472 118 489
5215 1.9875704585627347 4.1206782233512325 3.4656641993190207 91 84 83 2.0544609902959996 87 632 90 463 84 1663 85 1088 88 1448 86 950 87 1332 89 516 94 1111 92 1021
128 -1.2880139114519455 1.1141432405035572 -0.65934752753821946 69 69 64 2.4201800365149131 76 571 70 872
10401 -4.9016790186702632 7.3358863833922197 -1.5159863621307943 45 58 67 0.23344199973763122 114 610 118 517 120 467
5216 -8.9617442199606892 0.13802671698001065 7.8569032799005019 70 70 77 2.4485730910260628 86 380 95 521 88 391 90 397 86 515 87 684 95 516 88 968 89 394 96 289 96 664 92 296 92 594 93 654 98 144 98 445 99 233 102 150 102 555 101 427
3595 -6.1035525596788913 -2.7092098431247131 10.31856168082515 56 49 53 2.0266333936772294 80 888 83 1126 84 552 86 1367 78 351 79 373 75 282 87 969 89 869
6325 -14.687607432318952 2.1828280403193991 7.0984490050888684 101 102 106 1.2277628496312583 94 655 92 741 96 484 91 301 98 530
1238 2.6402538604788695 -6.302543635098206 14.715243614683583 33 26 18 1.9454066813202855 76 1009 77 316 74 319 77 1065 73 217 70 461 75 181 75 938 79 1133 78 174 80 202 82 177 83 193 69 179 69 750 81 195 71 167 71 420 71 874 68 147 68 378 68 701 66 324 66 750 67 281 65 263 65 664 64 253 64 1187
11511 1.8927899268405415 7.9205219150826034 -0.69342169098061535 149 149 151 1.0214395843057811 34 405 42 301 43 232 36 308
865 3.5866214256494442 -0.68235509018056639 8.6367159045629425 44 1 0 0.29979159840554614 70 1157 77 1404 74 1394 73 751 72 690 69 656 68 640 67 725 66 1148 65 537 64 560 61 519 62 663
11138 0.53498176912298534 2.4460001613044247 3.6804637490356309 28 28 30 2.5557289299799937 38 254 44 288 45 409 42 430 34 483 41 420
5952 6.1838588902621927 0.0023092222949525143 6.7059436733614195 8 5 0 0.19222551751469422 69 194 71 215 68 183 70 246 66 161 67 213 65 153 64 178 61 172 63 191 62 128 59 137 57 100 58 108 60 128 53 85 56 98 54 90 55 88 52 98 50 88 51 87
12760 14.085648920382306 18.456010299600031 10.097000374614494 243 255 255 2.0084358302464667 21 1 17 8 27 6 31 5
2487 1.6435576832331968 -2.2305289127298908 10.78224420771658 160 133 131 0.82436712023993053 70 360 74 411 72 509 70 1252 74 806 73 785 69 336 71 426 68 296 66 1164 67 337 67 947 65 335 64 264 61 265 61 844 63 303 62 321
3332 -2.5752362489422245 0.59159062187616873 8.1322636044342467 84 50 23 0.90999870125988369 80 43 82 41 83 89 81 55 84 93 85 97 88 95 86 46 87 55 90 48 89 54 94 52 91 49 96 52 92 42 93 38
13605 -0.85867260527562794 2.4209829319522034 0.3987147918902883 57 61 64 0.095773762247544234 22 619 28 207
130 -1.3038860093541393 1.0252369869523557 -0.7600634860849218 130 125 122 1.006749366551102 76 585 70 205
10403 -4.6939480631947124 8.1771638559809467 -2.2368389920265668 143 147 154 0.15537798346564544 111 481 118 606 110 620
5217 -8.8374722051494512 -0.54940467773874491 8.6131528862874536 35 32 40 1.6150288317581303 85 596 88 526 87 536 95 484 90 752 87 857 86 377 89 389 94 831 91 685 91 825 96 330 96 1222 93 258 97 240 97 354 98 246
13869 1.1575294514121817 3.1887699195780921 2.6998687260162484 72 72 74 0.2002312150927652 12 392 16 617
3596 -1.9391304996741123 -3.3541598097888454 9.5944587802571775 62 29 11 0.32305853218639791 78 1043 83 1142 79 1191 88 1260 86 1158 87 814
6425 1.5801093293123862 3.0986052914071345 2.7155196171595826 74 73 71 0.99158553197558175 70 565 67 516
11512 3.5020850979029143 2.1982583744525028 5.9512006397406427 166 156 147 0.43214335914391067 33 188 39 549 41 516 34 206 38 252 44 467 43 240 35 202
1239 -2.1743119252200347 -4.1307639428041734 10.500806665337967 112 79 62 1.1489718793737178 76 226 77 315 74 320 73 312 72 409 75 220 79 359 78 335 80 344 82 342 81 227 83 223 84 250 85 167 86 143 87 130 95 152
13770 -2.161949296061203 8.217111751282653 -1.6208529526374578 16 11 13 1.3731537565629486 22 716 12 599 13 386
6326 -8.3950406400919491 -1.0502152512399392 7.7755997300944824 11 10 23 1.0528483709945331 90 1212 95 1018 92 746 85 1126 88 1103 93 684 98 441
12762 -4.7816636220199422 7.4235925900696609 -1.5483468574863726 40 47 55 1.278477139215205 23 17 30 19 17 16 31 22 29 34
2489 1.1772724050745329 5.6446676104100186 3.319594220410683 59 57 56 1.3407435466715547 70 292 73 471 72 950 77 1298 74 1579 73 1586 76 1605 77 1092 74 1064 75 1723 78 1514 80 1393 82 613 83 928 69 402 81 1294 71 658 68 341 66 246
2490 1.145988002935304 5.4167128575341259 3.0193616586654795 58 58 57 2.1498492237894817 76 1604 70 1392 77 1601 73 1584 72 951 76 1750 77 1094 73 1637 75 968 78 1515 83 1462 82 922 69 613 86 628 88 1500 87 446 89 577 94 556 71 540 68 816 66 501 67 480 65 310 64 304 61 1062 79 455 78 290 60 589
12763 -2.0724855170472165 8.1488108940517137 -2.4065242726505804 145 141 140 1.7143212963953747 17 18 18 17 31 16 29 10
2589 -0.87580354432964047 1.7643709407183912 -1.5136644307781648 0 0 0 1.2897469182128729 73 895 76 799
232 2.1706184383092966 -1.7997551417596069 10.352624714903742 78 23 7 1.5354274424765262 76 1459 70 1225 74 1482 77 1582 76 1519 73 1329 73 1492 72 1650 75 1440 75 1453 75 1734 79 1254 79 1261 78 1169 80 1170 80 1308 83 1213 69 1012 69 1033 69 1468 81 1466 84 1364 85 1367 71 1105 68 637 66 597 67 564 65 539 65 901 64 553 64 873 61 486 61 841 63 464 62 843 62 848 59 562 59 817
10505 -4.968482728284294 7.8208382432599812 -1.474341056720007 114 129 150 0.95033421638470861 112 828 115 614 121 646 116 586 118 609 121 472
10406 0.2933535603305521 3.045136263387604 3.5706152658249 38 42 45 1.0570632368290711 115 665 116 327 118 682
133 -1.7207065285312984 -7.3331869156192813 13.548569191920642 109 108 106 1.3734938649963078 76 610 70 784 77 421 79 403 82 578
5220 0.28012471227174018 1.3962658118613731 8.1934400678058985 161 154 147 2.1334455980152671 82 307 83 325 81 323 80 325 84 342 82 798 83 1566 81 1299 84 837 85 334 85 1234 78 1356 80 600 88 358 88 1527 86 321 86 590 87 300 87 951 95 237 95 882 90 223 90 1186 88 1529 95 1347 89 222 94 278 94 538 91 222 96 230
6428 3.5426722875739918 -0.57733105797485906 8.5553414536795369 62 11 8 0.24105117841558038 66 1027 71 1158 67 574 68 1203 69 878 70 916 65 500 64 836 61 836 63 817
11515 6.4652339431113903 2.6703106478785781 1.6378271355702372 107 107 107 0.79317122903419379 34 286 43 252
1242 -1.7800075674682978 -3.4534268393691199 9.6800356875935716 133 118 112 0.7867849400917758 70 316 76 374 77 455 74 324 73 307 72 191 75 435 79 422 78 397 80 407 82 469 83 561 69 183 81 583 84 558 85 568 88 551 86 492 87 538 95 377 71 170
6329 -11.29825168159612 2.7480770968817789 7.0627690859476884 104 104 112 0.46923055758219628 91 899 94 792 89 621
3601 3.0435755693061179 -1.3375256424955044 8.9204704224804221 65 17 5 1.252819757351898 80 1183 83 1194 81 1443 84 1341
6430 -1.3247816957269873 2.1118235743349882 1.4114360987380608 0 0 0 1.7010199675957585 69 1245 72 607
11517 3.6412950695844222 5.1659972001200885 -3.8719135913248217 141 139 142 1.3952551887588445 41 352 43 275 35 270 40 385 32 376 24 389
1244 -0.24041238040891388 3.0191052718629217 3.1464085581915779 155 153 154 2.2702055490899116 77 232 74 334 75 99 79 77 80 74
6331 -8.3389452081489317 -0.33968621883092093 9.6940808550137589 1 1 13 0.39361292410982135 91 868 92 788 93 819 97 585
136 0.29157199665919681 -7.4498539698889097 12.656510710120557 135 130 127 0.89335807264448641 76 619 70 549 75 592 78 517 80 541 82 581 83 538 69 533 81 557 71 510 68 806 66 462
10409 -5.7743699201163459 8.9676840402153069 0.25917865809297197 79 80 82 0.86481426693229224 100 371 118 701 121 722
5223 0.32155176616538511 2.1876620553341515 3.6735530471900812 0 0 0 0.20773308192846079 81 33 95 34
13875 0.29006422155678568 8.7415179363783952 -0.43541103833706274 182 178 177 0.73711191553821465 22 666 16 657 6 620 11 658
3602 3.8275107730078894 -2.169708491333175 10.18530253226117 63 21 13 0.21189198660900396 80 1290 82 1344 83 1208
12767 1.149541633986463 3.4064201140390593 1.4078672640359569 173 168 165 1.4548330715859139 30 35 17 30 31 29 18 27 29 28 11 56
2494 5.8723285091887165 -8.4996379779017044 15.180522768496861 97 96 97 1.889513904272722 70 1511 77 1157 74 1733 73 1121 72 1022 70 956 75 840 75 1061 79 1069 79 1674 78 952 77 1147 71 932 76 601 68 942 66 875 66 881 67 1347
10410 -6.5426168069704662 9.8499770043605732 0.049452647553880291 0 5 3 1.4020453970223008 118 705 113 717 121 862
137 1.1876493217662443 -8.1246165584894801 12.976087529548561 107 102 99 0.95213022574715933 76 623 70 552 77 617 74 1152 72 106 79 556 78 520 82 1557 69 536 84 609 71 468 68 760 67 417
13513 -5.3303375408260418 6.8344615086988769 -2.2247362104891732 60 84 122 1.4796048064884717 25 565 22 546 28 414 16 540 15 600 11 521 4 474 6 503
3339 2.21278877167317 4.2373987990983544 3.2895564837285338 41 37 38 0.12049175554117592 80 102 82 113
13612 1.8326059700759441 2.8561591773362989 3.5061995508162549 130 121 119 0.42597546885745707 25 369 28 238
5224 -0.19991811856442754 1.7969518869386611 3.631828913132209 3 7 16 2.0770811359245758 95 26 89 12 94 18 91 8 96 15 92 9 93 8 97 10 98 7 99 6 102 6 103 8 101 9 87 20
2495 2.9934157270185757 0.67898116200556324 7.385530919516361 61 11 13 1.5179054177871976 76 258 70 315 77 255 74 281 72 269 76 1714 70 1431 77 1712 74 1727 73 1208 75 223 79 229 78 244 80 1497 82 268 83 261 83 754 81 237 84 139 85 189 68 976 66 644 67 1262
12768 0.29222198923938791 4.7209723445528358 1.7112895837586855 0 0 0 0.28707709058666131 23 51 30 61
1247 -0.32386540142254999 5.2128810914392334 4.0773494043831198 25 29 32 0.64637732696840156 70 238 74 342 73 268 72 243 79 308 69 236 71 212 68 190 66 136 65 133
6334 -4.8413187588520117 -1.1536782556263772 8.7920032307775866 68 50 45 0.45931902132147284 91 900 94 979 92 803 93 841
12769 -1.6642300010962889 0.99045009745954382 2.125888369850804 0 0 0 1.7280781347201097 19 22 30 43
2496 1.1410006423604586 -1.1115836034637867 8.9936786213710196 113 75 71 2.1449117644193447 70 276 74 783 72 1220 76 163 79 127 78 147 80 307 78 236 77 1550 76 1760 68 221 66 266 73 738
776 -1.1523979754376965 -6.5437178163655974 12.708326575511679 132 131 129 0.1138690578619969 70 1097 77 1156 74 1135
11049 9.7675193284927104 5.4718322876907362 -1.0824262161629645 204 203 209 0.93545250328643981 38 352 39 417 44 415 46 357 41 388 46 323 34 366 43 351 35 347
5863 -8.567366836750038 -2.9368906674232411 11.88978741418563 49 53 65 0.29420600148847653 91 863 94 899 96 852 92 763
13779 1.3104111942753149 3.4280506155880808 4.04872566211042 92 92 93 0.79662700405281517 28 333 12 674 16 331 15 229
3506 -1.1033820368874374 -0.86691940654281807 7.9211590290579021 111 110 118 0.84702627310495049 76 161 83 189 81 255 84 290
3605 -5.0198069353370451 0.77205321543094085 8.5274031201514635 64 41 33 0.15771737853180909 80 1468 82 1268 83 1220
13878 -0.28398658783419667 6.5176029023442945 0.35965575585687914 124 124 124 1.516297265982183 12 756 28 254 16 667
11422 0.025393418287403383 2.0896233873157253 1.9952487432002173 171 167 165 0.70263250501220387 38 466 33 234
1149 -3.1796045012001874 -2.6997942930654322 8.816326239994968 26 2 0 0.62292056083719005 76 94 77 75 74 61 73 61 75 87 79 93 78 81 80 88 82 101 83 137 81 149 84 161 85 169 88 147 86 155 87 134 95 154 90 145 89 133 94 123
1248 2.9359984604541309 -7.6160584862317204 13.256000350109472 108 103 100 0.63634366286112798 70 338 76 218 77 246 74 347 73 375 72 340 75 212 79 214 78 203 80 217 82 220 83 220 69 311 71 295 68 268 66 284 67 318 65 222 64 241
11521 -0.7054748994946769 2.6523220172496171 0.4607605658636999 172 170 173 0.87553584554355945 34 358 43 322 37 330
3704 -0.33867173606768103 1.602741720701746 3.202635495459206 33 30 28 1.4920833520957526 78 1479 69 259 66 255 67 230
13977 -0.76603925713653376 7.5274439610783261 0.46241482442779025 70 71 72 1.5690318530468688 12 534 16 141 15 741 6 76 25 174
6436 5.6717288264522665 -0.92953042856335222 4.5647249903780622 194 174 185 0.51162987889200595 71 853 67 641
11523 2.8937728805927465 5.1620114530789163 -4.2796646216514791 162 162 162 1.511686737534397 45 204 43 339 44 340 36 289 35 258 37 205 24 216
1250 1.866872096310753 -0.81205551936250286 9.7131451999666005 165 141 136 1.2330799377273882 70 611 76 329 77 509 74 349 73 501 72 377 79 499 78 177 78 753 82 265 82 1227 69 421 81 360 83 423 84 257 85 192 85 1603 61 332
11424 -1.1833029189397863 1.4770219318430968 2.2296622315089234 70 70 72 0.66184805247623735 39 458 33 241
1151 0.8522502828897569 -6.9254547852476387 13.232909592394549 159 153 153 0.49998783504764488 70 62 76 60 77 67 74 66 73 68 72 57 75 57 79 58 78 56 80 59 82 66 83 69 69 53 81 68 84 72 85 76 71 56 68 45 66 59 67 56
6337 -14.360286624845829 3.0969636632091726 8.0372818624936535 105 105 111 2.2370013077639248 91 884 94 757 92 843 98 604
